ncols         351
nrows         61
xllcorner     969870
yllcorner     665430
cellsize      90
NODATA_value  -9999
-9999 -9999 -9999 -9999 -9999 -9999 -9999 -9999 -9999 -9999 -9999 -9999 -9999 -9999 -9999 -9999 -9999 -9999 -9999 -9999 -9999 -9999 -9999 288 285 281 280 282 296 316 329 332 326 308 299 293 290 279 272 271 272 272 272 272 272 271 271 273 275 279 281 303 315 331 327 302 290 275 267 261 257 257 267 281 296 309 318 325 343 348 342 340 350 354 357 366 372 374 376 379 383 385 389 392 392 392 390 387 384 382 376 370 364 357 348 333 310 319 326 325 318 295 273 261 256 256 257 256 257 263 259 259 261 264 265 269 277 290 312 344 371 381 378 387 396 399 403 408 413 419 425 427 428 428 428 427 427 427 427 426 425 423 421 422 423 424 424 423 421 420 420 421 422 424 427 429 432 436 440 442 443 446 449 451 450 448 444 438 432 428 425 422 421 420 418 416 416 415 411 407 404 403 400 396 394 387 381 378 375 371 366 363 362 360 357 354 352 349 347 342 337 334 331 327 323 320 315 308 293 289 302 311 318 321 322 324 326 328 331 334 335 335 335 334 333 332 331 329 327 324 321 319 318 316 315 313 312 311 310 309 309 309 308 308 308 307 307 306 305 304 302 300 298 296 293 291 288 286 284 283 282 279 276 273 271 268 265 262 258 246 240 240 244 245 242 239 235 232 227 223 218 214 213 213 213 213 213 213 213 213 213 213 213 213 213 213 213 213 213 213 213 213 213 213 213 213 213 213 213 213 214 215 220 -9999 -9999 -9999 -9999 -9999 -9999 -9999 -9999 -9999 -9999 -9999 -9999 -9999 -9999 -9999 -9999 -9999 -9999 -9999 -9999 -9999 -9999 -9999 -9999 -9999 -9999 -9999 -9999 -9999 -9999 -9999 -9999 -9999 -9999 -9999 -9999 -9999 -9999
-9999 -9999 -9999 -9999 -9999 -9999 -9999 -9999 -9999 -9999 -9999 -9999 -9999 -9999 -9999 -9999 359 342 323 310 300 293 288 285 281 275 274 274 280 300 316 318 307 297 290 287 283 274 271 271 272 272 273 272 271 271 271 272 274 274 274 284 293 308 317 299 286 276 269 259 256 259 280 304 325 338 341 353 374 380 375 375 382 377 374 382 387 390 393 394 393 395 395 393 392 391 390 387 384 381 377 372 368 365 354 335 321 333 336 332 316 290 268 258 256 256 257 257 257 257 257 256 256 256 257 259 267 278 300 327 354 367 368 377 388 394 399 406 412 418 423 426 428 429 430 430 430 429 429 429 428 426 424 425 426 427 427 426 425 423 423 425 426 427 430 432 434 437 440 443 444 446 448 448 447 445 440 429 424 419 415 411 409 407 406 403 402 401 398 393 392 390 388 387 384 379 377 374 371 367 364 361 359 357 354 351 349 347 343 339 335 332 329 326 322 318 313 307 293 291 304 309 314 318 320 323 325 327 330 333 335 335 335 335 335 334 333 332 329 326 322 319 318 317 315 314 313 311 310 308 308 308 308 308 307 307 306 306 305 304 301 298 295 293 290 288 286 283 281 279 276 274 271 270 267 264 262 258 253 244 236 228 233 239 238 235 232 227 223 219 214 213 213 213 213 213 213 213 213 213 213 213 213 213 213 213 213 213 213 213 213 213 213 213 213 213 213 213 213 216 219 221 225 -9999 -9999 -9999 -9999 -9999 -9999 -9999 -9999 -9999 -9999 -9999 -9999 -9999 -9999 -9999 -9999 -9999 -9999 -9999 -9999 -9999 -9999 -9999 -9999 -9999 -9999 -9999 -9999 -9999 -9999 -9999 -9999 -9999 -9999 -9999 -9999 -9999 -9999
-9999 -9999 -9999 -9999 -9999 -9999 -9999 -9999 -9999 414 414 410 401 392 385 380 372 347 322 309 299 291 287 283 280 276 274 273 273 283 291 294 292 288 286 284 280 274 272 271 272 272 274 275 273 273 272 273 273 273 272 272 274 284 299 298 285 278 271 258 257 271 302 334 364 376 372 386 402 404 398 396 396 394 390 392 395 399 401 402 401 401 397 394 393 391 389 387 384 380 377 373 369 364 349 338 341 343 343 334 313 289 268 258 257 257 257 257 258 259 258 258 257 257 257 256 259 270 295 318 340 351 359 373 385 392 398 406 413 419 424 427 429 430 431 431 432 432 432 432 431 429 428 428 429 429 429 428 427 426 427 428 430 431 434 436 437 440 442 443 445 446 447 446 444 441 433 422 416 411 408 404 400 398 398 395 393 392 389 385 383 382 380 378 377 374 372 370 367 365 362 360 358 355 352 350 347 344 340 336 333 330 327 324 322 317 310 303 290 288 299 303 308 312 318 321 323 325 328 332 335 335 336 336 335 335 335 334 331 328 324 320 319 317 316 314 313 311 310 308 307 307 307 307 307 306 306 305 305 304 301 296 293 290 288 286 283 281 278 275 273 270 268 266 264 261 258 254 249 242 232 225 225 229 232 231 229 223 217 214 213 213 213 213 213 213 213 213 213 213 213 213 213 213 213 213 213 213 213 213 213 213 213 213 213 213 213 213 215 218 222 225 229 -9999 -9999 -9999 -9999 -9999 -9999 -9999 -9999 -9999 -9999 -9999 -9999 -9999 -9999 -9999 -9999 -9999 -9999 -9999 -9999 -9999 -9999 -9999 -9999 -9999 -9999 -9999 -9999 -9999 -9999 -9999 -9999 -9999 -9999 -9999 -9999 -9999 -9999
-9999 436 431 433 435 432 432 433 428 424 425 423 408 396 390 385 378 355 335 322 307 294 286 283 280 277 274 273 272 276 281 284 284 284 283 282 279 275 273 272 272 272 273 277 278 276 275 276 277 278 275 272 271 272 281 286 284 279 272 257 260 286 325 364 397 407 401 408 413 413 408 403 402 402 399 400 404 408 408 409 408 404 399 395 393 391 389 387 384 381 377 374 369 363 355 351 351 351 350 334 311 290 269 258 257 257 257 257 258 259 260 259 258 258 258 256 256 266 291 315 335 344 354 372 385 394 401 408 414 421 426 428 429 430 431 432 433 434 435 435 434 434 433 432 432 432 431 431 430 430 430 432 434 436 439 440 440 441 443 444 445 446 446 445 442 437 425 413 409 406 401 397 394 392 390 387 383 383 382 379 377 376 374 372 370 368 367 366 364 362 361 359 357 354 351 349 346 343 339 334 331 328 323 321 319 314 307 293 287 284 284 287 299 307 313 318 321 323 326 330 334 335 336 336 336 336 335 335 333 329 325 322 320 318 316 314 312 311 309 308 307 307 306 306 306 306 306 305 305 304 300 295 291 288 285 283 281 278 275 273 270 267 265 263 261 257 254 250 244 238 228 223 220 221 224 223 221 216 213 213 213 213 213 213 213 213 213 213 213 213 213 213 213 213 213 213 213 213 213 213 213 213 213 213 213 213 213 214 217 220 224 227 232 -9999 -9999 -9999 -9999 -9999 -9999 -9999 -9999 -9999 -9999 -9999 -9999 -9999 -9999 -9999 -9999 -9999 -9999 -9999 -9999 -9999 -9999 -9999 -9999 -9999 -9999 -9999 -9999 -9999 -9999 -9999 -9999 -9999 -9999 -9999 -9999 -9999 -9999
443 445 445 451 453 444 440 440 434 430 428 425 415 403 394 388 379 370 365 358 339 310 288 283 281 278 275 273 273 274 278 280 280 280 280 280 279 276 273 272 272 272 272 274 280 282 281 281 283 286 282 276 272 271 273 278 280 277 271 260 269 298 340 385 408 406 408 411 413 413 411 408 409 408 407 408 411 412 413 412 411 405 398 395 393 391 390 388 385 382 379 376 372 365 360 355 353 351 350 334 310 290 273 263 258 257 257 258 259 260 260 260 259 259 259 257 256 268 293 316 332 344 356 370 386 398 405 411 418 425 427 428 429 430 431 432 434 435 436 438 438 438 437 436 435 434 434 433 433 434 435 435 437 439 441 442 443 443 444 445 446 446 445 444 440 430 418 409 405 401 397 392 389 386 384 379 378 377 376 374 372 370 368 366 365 364 363 363 361 360 358 357 355 353 351 349 346 343 339 336 333 329 322 317 314 309 303 294 289 286 285 281 286 301 310 315 318 320 323 326 330 334 336 336 336 336 336 335 334 330 326 323 321 319 316 314 311 310 308 307 306 306 306 306 305 305 305 305 304 301 297 292 289 286 283 281 279 276 273 270 267 264 261 260 257 253 250 247 242 235 228 221 215 213 215 213 213 213 213 213 213 213 213 213 213 213 213 213 213 213 213 213 213 213 213 213 213 213 213 213 213 213 213 213 213 213 213 216 218 222 225 229 237 241 -9999 -9999 -9999 -9999 -9999 -9999 -9999 -9999 -9999 -9999 -9999 -9999 -9999 -9999 -9999 -9999 -9999 -9999 -9999 -9999 -9999 -9999 -9999 -9999 -9999 -9999 -9999 -9999 -9999 -9999 -9999 -9999 -9999 -9999 -9999 -9999 -9999
448 450 453 456 455 448 443 440 437 434 430 427 421 412 403 395 389 383 380 377 362 328 293 284 282 279 276 274 273 274 276 277 277 277 276 277 277 276 274 273 272 271 271 271 277 286 286 290 297 300 291 279 272 271 272 274 274 271 263 266 276 309 355 393 410 408 410 411 413 413 412 411 412 412 412 412 413 414 414 413 409 405 402 396 393 392 391 390 388 386 382 381 377 370 363 357 352 349 350 335 313 294 274 261 257 257 257 258 259 260 261 261 260 260 259 257 258 277 308 330 332 344 363 373 388 403 410 415 421 426 427 427 428 429 430 431 432 434 436 439 441 441 440 439 438 436 436 436 436 438 439 438 440 442 444 445 446 446 447 447 447 447 446 444 440 428 414 407 402 398 394 388 382 380 379 376 374 373 372 369 367 365 363 362 361 360 360 359 358 357 356 355 354 352 350 348 346 343 340 338 336 333 326 321 317 311 306 304 299 294 292 284 279 294 308 312 315 318 320 322 325 330 334 336 336 336 335 335 333 329 326 323 320 318 315 313 311 308 306 306 305 305 305 305 305 305 304 304 301 297 293 289 286 283 280 278 276 273 270 267 264 261 257 255 252 248 245 243 237 230 225 217 213 213 213 213 213 213 213 213 213 213 213 213 213 213 213 213 213 213 213 213 213 213 213 213 213 213 213 213 213 213 213 213 213 213 215 217 220 223 226 234 242 245 -9999 -9999 -9999 -9999 -9999 -9999 -9999 -9999 -9999 -9999 -9999 -9999 -9999 -9999 -9999 -9999 -9999 -9999 -9999 -9999 -9999 -9999 -9999 -9999 -9999 -9999 -9999 -9999 -9999 -9999 -9999 -9999 -9999 -9999 -9999 -9999 -9999
452 454 456 456 453 449 445 442 440 437 431 427 422 414 408 401 395 387 377 373 357 328 297 287 284 280 276 274 273 274 274 275 275 275 274 274 274 275 274 273 271 271 274 281 285 293 305 321 328 322 305 290 278 273 272 272 271 265 266 272 282 325 372 396 404 411 411 412 414 414 414 414 414 414 414 414 415 417 416 412 409 417 422 414 401 395 394 393 393 393 392 389 386 381 373 361 349 347 348 339 319 296 272 257 256 256 257 258 259 261 261 262 261 260 259 257 261 289 323 341 341 351 366 375 391 409 413 417 421 425 426 426 427 428 429 429 430 431 433 436 440 441 441 441 439 438 438 438 438 441 445 442 441 446 447 448 449 450 450 449 449 448 446 444 440 426 411 405 400 396 391 386 380 376 374 372 371 370 368 366 363 361 360 358 357 357 356 355 354 353 353 352 352 351 349 347 345 343 341 338 337 334 328 322 317 313 310 308 306 305 298 285 277 293 306 309 311 314 317 318 320 324 330 334 335 335 335 334 331 328 324 322 319 317 314 312 310 307 304 304 304 304 303 303 304 304 303 300 296 292 289 286 283 280 277 274 273 270 266 263 261 257 253 249 246 244 240 234 228 224 219 213 213 213 213 213 213 213 213 213 213 213 213 213 213 213 213 213 213 213 213 213 213 213 213 213 213 213 213 213 213 213 213 213 213 214 216 218 221 223 227 236 243 246 -9999 -9999 -9999 -9999 -9999 -9999 -9999 -9999 -9999 -9999 -9999 -9999 -9999 -9999 -9999 -9999 -9999 -9999 -9999 -9999 -9999 -9999 -9999 -9999 -9999 -9999 -9999 -9999 -9999 -9999 -9999 -9999 -9999 -9999 -9999 -9999 -9999
-9999 456 456 455 453 450 447 444 442 439 431 425 424 425 418 410 402 390 378 367 355 335 306 289 286 281 275 274 274 274 274 274 274 274 274 273 273 273 273 273 272 277 293 304 314 325 341 356 357 352 335 323 306 283 274 271 269 269 271 277 291 338 376 391 397 410 412 413 414 415 415 416 416 416 416 416 417 419 419 417 420 428 429 426 415 408 402 405 410 410 408 400 396 395 388 375 359 347 342 337 320 292 267 256 255 256 257 258 259 261 262 263 262 261 258 257 271 298 332 349 349 358 370 381 397 411 414 417 421 423 425 425 426 427 427 428 428 429 430 432 436 439 441 441 440 438 438 440 444 447 453 456 455 452 451 451 452 453 453 452 450 448 446 443 440 426 411 403 398 394 389 384 379 374 370 368 367 366 365 362 359 357 356 354 353 353 353 352 351 350 350 350 350 349 348 346 344 342 340 338 337 334 329 323 319 316 314 311 309 307 303 289 276 289 302 305 308 311 313 315 317 320 324 329 331 333 333 331 328 325 322 320 317 315 313 311 308 306 303 300 300 300 299 299 299 299 297 295 292 288 285 282 280 277 273 270 267 264 262 260 256 252 248 243 240 237 232 226 222 218 213 213 213 213 213 213 213 213 213 213 213 213 213 213 213 213 213 213 213 213 213 213 213 213 213 213 213 213 213 213 213 213 213 213 214 216 217 219 221 224 228 236 243 249 -9999 -9999 -9999 -9999 -9999 -9999 -9999 -9999 -9999 -9999 -9999 -9999 -9999 -9999 -9999 -9999 -9999 -9999 -9999 -9999 -9999 -9999 -9999 -9999 -9999 -9999 -9999 -9999 -9999 -9999 -9999 -9999 -9999 -9999 -9999 -9999 -9999
-9999 456 455 454 452 450 447 445 443 439 437 437 438 440 432 424 409 394 385 377 366 345 315 295 289 286 282 283 277 274 273 273 274 273 273 273 272 273 274 275 277 298 322 340 353 364 371 369 364 360 353 349 337 308 281 275 270 271 274 278 304 345 372 387 400 411 412 414 415 416 417 417 418 418 418 419 419 421 423 424 429 433 433 426 424 426 425 426 427 426 420 411 410 403 395 385 371 354 342 335 316 289 269 257 256 256 257 258 259 260 262 263 263 262 260 264 287 306 325 346 354 363 381 399 409 413 415 418 420 422 423 424 425 425 426 426 426 426 426 427 430 434 438 440 439 437 437 438 441 446 453 458 458 455 452 453 455 457 455 454 452 449 446 443 436 424 411 403 397 392 387 382 376 370 366 364 363 362 361 358 356 353 352 350 350 350 350 349 348 348 348 347 347 347 346 344 343 342 340 338 336 334 330 326 322 319 316 313 311 309 305 294 275 279 291 299 305 308 310 313 315 317 320 324 327 329 328 327 325 322 320 317 315 313 311 309 307 305 302 297 295 294 293 293 292 291 290 290 288 285 282 279 277 273 269 264 260 257 257 255 250 244 242 239 235 231 226 220 216 213 213 213 213 213 213 213 213 213 213 213 213 213 213 213 213 213 213 213 213 213 213 213 213 213 213 213 213 213 213 213 213 213 213 214 216 217 219 220 222 225 229 241 255 259 -9999 -9999 -9999 -9999 -9999 -9999 -9999 -9999 -9999 -9999 -9999 -9999 -9999 -9999 -9999 -9999 -9999 -9999 -9999 -9999 -9999 -9999 -9999 -9999 -9999 -9999 -9999 -9999 -9999 -9999 -9999 -9999 -9999 -9999 -9999 -9999 -9999
-9999 453 452 452 452 450 448 446 444 442 442 442 442 442 436 429 417 402 393 384 372 349 319 305 305 309 318 319 301 279 273 272 273 273 273 273 273 273 277 278 299 328 354 374 389 390 381 372 364 360 356 354 349 327 298 277 272 275 275 288 317 342 360 380 395 409 412 414 416 418 418 419 419 420 420 421 421 423 425 428 433 439 443 447 446 444 440 435 431 428 422 413 410 402 394 388 380 363 345 333 315 291 273 257 256 257 258 258 259 260 261 263 263 262 264 276 305 328 337 345 357 372 394 410 413 414 416 417 419 421 422 423 424 424 424 424 424 424 424 425 426 430 433 435 436 435 435 435 437 441 448 456 457 453 450 451 456 458 457 456 453 449 445 441 431 420 408 401 396 390 384 379 372 366 362 360 358 356 355 353 351 350 349 348 347 347 347 346 346 345 345 345 345 344 343 343 342 341 339 337 336 334 331 327 323 320 318 316 313 310 306 300 279 272 274 279 300 305 308 310 313 315 318 321 323 325 325 324 321 319 317 314 312 310 309 307 305 303 299 294 291 288 289 288 287 286 286 285 284 281 278 276 273 269 265 261 257 253 251 249 245 241 237 234 230 226 220 215 213 213 213 213 213 213 213 213 213 213 213 214 214 214 214 213 213 213 213 213 213 213 213 213 213 213 213 213 213 213 213 213 213 214 214 216 217 219 220 222 223 225 233 252 262 266 -9999 -9999 -9999 -9999 -9999 -9999 -9999 -9999 -9999 -9999 -9999 -9999 -9999 -9999 -9999 -9999 -9999 -9999 -9999 -9999 -9999 -9999 -9999 -9999 -9999 -9999 -9999 -9999 -9999 -9999 -9999 -9999 -9999 -9999 -9999 -9999 -9999
-9999 446 449 450 450 450 448 446 444 443 442 441 442 441 436 429 418 407 398 389 376 349 324 323 337 344 347 335 307 291 294 287 279 277 275 275 275 278 284 306 337 366 389 409 414 399 387 375 366 360 355 352 349 332 309 292 287 290 294 304 321 340 351 366 383 404 413 414 416 419 420 421 421 422 422 422 423 424 429 434 441 451 454 457 457 445 437 433 428 423 416 410 404 398 393 388 383 373 353 340 329 304 280 259 256 256 257 258 259 259 261 262 261 261 266 295 323 348 362 357 362 380 396 410 412 414 415 417 419 420 421 422 422 423 423 423 423 423 423 423 424 427 429 431 431 432 432 432 433 435 440 445 448 446 443 445 456 458 458 457 453 448 443 437 426 417 408 400 394 388 382 375 368 363 359 356 353 351 350 349 348 347 346 345 345 344 344 344 343 343 343 342 342 342 341 341 340 339 338 337 335 334 331 327 325 322 321 319 315 311 308 304 290 277 270 273 289 301 306 308 310 313 315 318 320 321 321 320 319 316 314 312 309 308 306 304 303 300 296 293 289 287 285 285 284 283 283 281 280 278 275 272 269 265 260 257 253 248 245 243 240 236 232 229 226 220 214 213 213 213 213 213 213 213 213 213 213 213 214 214 214 214 214 214 213 213 213 213 213 213 213 213 213 213 213 213 213 213 213 213 214 215 216 218 219 220 222 223 224 226 237 257 268 273 -9999 -9999 -9999 -9999 -9999 -9999 -9999 -9999 -9999 -9999 -9999 -9999 -9999 -9999 -9999 -9999 -9999 -9999 -9999 -9999 -9999 -9999 -9999 -9999 -9999 -9999 -9999 -9999 -9999 -9999 -9999 -9999 -9999 -9999 -9999 -9999 -9999
-9999 442 445 447 448 448 448 446 445 444 442 441 441 440 435 428 416 405 399 391 374 346 332 338 351 356 354 336 307 310 328 324 318 311 300 292 292 301 323 350 378 404 421 428 424 406 391 377 369 363 359 352 347 333 323 314 312 329 321 319 332 348 363 365 379 400 412 415 417 420 422 423 423 424 424 424 425 430 437 444 455 457 456 456 450 437 428 426 423 415 409 405 398 394 391 388 384 379 365 357 345 322 292 268 256 256 257 258 258 259 259 259 259 265 287 316 340 362 367 368 373 386 396 405 411 413 415 417 418 419 420 421 421 421 421 421 421 421 421 422 423 424 426 427 427 428 429 429 428 429 432 434 438 438 436 439 453 459 458 456 451 446 441 431 422 413 405 398 392 384 378 370 364 360 356 353 350 349 347 346 345 345 344 343 342 341 341 341 341 340 340 340 340 340 339 338 338 337 336 335 334 333 330 328 326 323 322 320 317 314 311 307 300 290 275 267 278 293 303 306 308 310 313 315 318 318 318 317 316 313 311 308 306 305 303 302 299 297 294 291 288 285 283 282 281 280 279 278 276 274 271 267 263 260 256 253 248 244 240 237 233 230 227 223 218 214 213 213 213 213 213 213 213 213 213 213 213 214 214 214 214 214 214 214 213 213 213 213 213 213 213 213 213 213 213 213 213 213 213 214 215 217 218 219 221 222 223 225 226 228 243 261 272 274 272 -9999 -9999 -9999 -9999 -9999 -9999 -9999 -9999 -9999 -9999 -9999 -9999 -9999 -9999 -9999 -9999 -9999 -9999 -9999 -9999 -9999 -9999 -9999 -9999 -9999 -9999 -9999 -9999 -9999 -9999 -9999 -9999 -9999 -9999 -9999 -9999
-9999 440 443 445 446 447 446 445 445 443 442 441 440 437 432 424 407 391 383 379 363 345 347 357 361 364 364 345 317 325 349 357 358 353 343 336 341 354 373 393 415 435 437 434 423 407 394 379 377 378 376 373 368 357 350 336 330 356 356 342 337 347 361 371 383 396 410 415 419 423 426 428 428 428 428 430 435 443 454 465 466 459 450 442 438 431 424 421 417 411 407 403 397 394 391 388 383 381 377 374 367 342 310 277 258 256 256 257 258 259 259 258 266 289 315 338 356 366 370 376 385 393 396 402 409 413 415 416 418 419 420 420 420 420 420 420 420 420 420 420 421 422 422 422 422 423 425 422 420 423 425 424 426 428 428 431 440 455 456 452 448 442 435 425 416 409 401 395 388 380 372 366 361 357 353 350 348 346 345 344 343 342 341 340 339 339 339 338 338 338 337 338 338 338 337 336 336 335 335 334 333 332 330 328 326 324 323 321 319 317 313 309 305 296 282 267 270 286 299 303 305 308 311 313 315 315 315 314 312 310 308 305 303 301 299 297 295 293 291 288 285 282 280 279 278 277 276 275 273 270 266 263 259 256 252 248 244 239 235 230 227 223 220 215 213 213 213 213 213 213 213 213 213 213 213 213 214 214 214 214 214 214 214 214 213 213 213 213 213 213 213 213 213 213 213 213 213 214 215 216 216 218 219 221 222 224 225 226 233 240 243 258 267 272 269 -9999 -9999 -9999 -9999 -9999 -9999 -9999 -9999 -9999 -9999 -9999 -9999 -9999 -9999 -9999 -9999 -9999 -9999 -9999 -9999 -9999 -9999 -9999 -9999 -9999 -9999 -9999 -9999 -9999 -9999 -9999 -9999 -9999 -9999 -9999 -9999
-9999 438 441 443 444 444 444 444 443 443 442 441 435 432 427 412 396 378 365 356 351 357 365 369 369 368 365 347 321 336 358 369 379 380 377 378 390 406 420 432 447 444 438 430 416 406 397 390 396 399 396 392 385 378 366 349 347 369 379 373 359 351 352 367 381 395 409 416 421 426 433 437 437 437 438 445 454 459 464 471 466 457 445 439 435 430 425 421 416 410 406 402 398 395 392 388 384 380 379 379 377 363 327 292 263 256 256 256 258 259 259 260 282 315 342 359 363 365 368 385 396 399 401 404 408 413 415 416 418 419 419 419 419 419 419 419 418 418 418 419 419 419 418 416 413 411 411 408 410 415 416 417 419 420 421 424 431 441 448 447 444 435 426 418 410 403 396 389 383 375 365 362 358 354 350 348 346 344 343 342 341 340 338 337 336 336 336 336 336 335 335 335 336 336 335 335 334 334 333 333 332 331 330 328 326 325 323 322 321 319 315 311 305 298 289 273 261 275 291 298 303 307 310 312 313 313 312 311 310 308 305 302 299 296 294 292 291 289 288 285 282 279 276 275 275 274 272 271 269 266 262 258 255 251 248 244 239 234 229 224 221 217 213 213 213 213 213 213 213 213 213 213 213 213 213 213 214 214 214 215 214 214 214 214 213 213 213 213 213 213 213 213 213 213 213 213 214 215 216 217 218 219 220 222 224 226 228 235 240 246 248 255 255 258 265 -9999 -9999 -9999 -9999 -9999 -9999 -9999 -9999 -9999 -9999 -9999 -9999 -9999 -9999 -9999 -9999 -9999 -9999 -9999 -9999 -9999 -9999 -9999 -9999 -9999 -9999 -9999 -9999 -9999 -9999 -9999 -9999 -9999 -9999 -9999 -9999
-9999 437 440 442 443 442 442 442 442 442 440 437 431 425 416 400 392 384 382 380 374 374 377 377 375 369 360 338 329 356 370 376 382 387 391 404 422 440 453 457 456 445 436 427 421 416 417 419 415 412 406 398 389 380 368 356 365 380 387 387 380 370 362 368 381 394 405 415 424 430 439 445 447 448 449 456 458 460 461 461 458 450 443 437 434 430 427 423 417 412 406 400 396 394 391 389 385 382 381 380 381 377 346 310 277 258 255 256 258 260 261 264 277 323 351 361 360 364 375 393 402 407 412 412 409 413 415 416 418 418 419 419 419 418 418 417 417 417 417 417 417 416 415 413 408 402 400 398 401 407 408 411 413 413 413 416 423 432 441 442 437 426 417 410 402 395 389 383 376 369 363 359 355 351 349 347 345 343 341 340 339 337 336 335 334 334 334 334 334 333 333 334 335 335 334 333 333 332 332 331 331 330 329 328 327 325 324 323 321 320 317 312 306 301 293 279 258 264 283 296 304 307 309 310 311 311 310 309 307 305 302 299 294 291 289 288 287 285 282 280 277 275 273 272 273 271 269 267 264 261 257 254 250 247 243 239 234 229 224 219 215 213 213 213 213 213 213 213 213 213 213 213 213 213 213 213 214 214 214 215 214 214 214 214 213 213 213 213 213 213 213 213 213 213 214 215 216 217 218 219 220 220 221 222 224 228 239 252 253 254 258 262 262 263 267 -9999 -9999 -9999 -9999 -9999 -9999 -9999 -9999 -9999 -9999 -9999 -9999 -9999 -9999 -9999 -9999 -9999 -9999 -9999 -9999 -9999 -9999 -9999 -9999 -9999 -9999 -9999 -9999 -9999 -9999 -9999 -9999 -9999 -9999 -9999 -9999
-9999 -9999 440 441 441 439 438 438 438 437 433 427 422 413 399 395 400 399 398 400 392 388 386 383 379 364 348 333 344 372 380 382 387 392 404 423 438 454 470 469 460 453 446 442 446 450 441 430 422 414 407 399 391 381 371 368 377 389 395 395 393 384 374 370 378 390 403 418 429 438 444 450 454 456 457 458 457 455 453 450 445 440 437 434 432 429 427 423 418 412 406 399 395 393 390 388 386 384 382 380 381 381 365 328 292 265 256 256 257 260 261 260 269 314 345 354 362 374 390 401 408 414 417 416 414 415 416 417 418 418 418 418 418 417 417 416 416 415 415 415 415 414 413 410 402 396 395 393 394 399 403 405 406 406 407 409 415 422 428 430 425 415 405 396 390 386 382 376 369 364 360 357 353 349 347 345 344 342 340 338 336 335 335 334 333 333 332 332 331 331 331 331 332 332 332 331 331 330 330 330 330 329 329 328 326 325 324 323 322 321 319 313 307 301 294 281 260 258 273 297 306 307 307 308 309 309 308 307 306 303 299 295 290 287 285 283 281 279 277 275 273 271 268 267 267 266 264 263 260 257 252 248 245 243 239 234 229 224 219 214 213 213 213 213 213 213 213 213 213 213 213 213 213 213 213 213 214 214 214 214 214 214 214 213 213 213 213 213 213 213 213 213 214 215 217 218 219 219 220 221 222 222 222 223 227 239 257 265 263 261 265 269 269 268 272 -9999 -9999 -9999 -9999 -9999 -9999 -9999 -9999 -9999 -9999 -9999 -9999 -9999 -9999 -9999 -9999 -9999 -9999 -9999 -9999 -9999 -9999 -9999 -9999 -9999 -9999 -9999 -9999 -9999 -9999 -9999 -9999 -9999 -9999 -9999 -9999
-9999 -9999 437 438 435 433 432 431 429 425 420 410 404 399 399 411 416 419 421 417 406 396 392 388 377 360 347 335 350 379 388 390 393 401 418 435 449 461 474 476 472 471 471 470 470 470 454 438 428 421 414 407 399 392 383 381 389 399 401 401 398 391 385 382 384 395 408 426 437 444 451 455 457 458 458 457 455 448 443 440 438 436 433 430 429 427 424 421 418 413 408 398 394 392 390 388 386 385 383 381 381 382 377 347 310 277 258 256 256 260 261 259 265 303 338 357 375 391 400 408 416 423 424 421 419 418 418 418 418 418 418 418 417 417 416 415 415 414 414 413 413 412 411 404 395 393 391 390 391 394 398 399 399 398 400 403 407 413 417 417 411 400 390 383 380 377 374 369 363 360 356 353 350 347 345 343 342 340 338 336 335 333 333 332 331 331 330 330 329 328 328 328 329 329 329 329 329 329 328 328 328 328 328 327 326 325 324 323 322 321 319 314 308 301 295 288 268 263 273 297 304 305 306 306 306 307 306 305 303 299 295 290 287 283 281 278 276 274 273 271 269 267 264 261 261 261 260 258 256 251 246 242 241 238 234 229 225 219 214 213 213 213 213 213 213 213 213 213 213 213 213 213 213 213 213 213 214 214 214 214 214 214 213 213 213 213 213 213 213 214 215 215 221 221 221 221 221 221 222 223 223 223 223 225 240 260 273 275 274 273 274 275 274 273 277 -9999 -9999 -9999 -9999 -9999 -9999 -9999 -9999 -9999 -9999 -9999 -9999 -9999 -9999 -9999 -9999 -9999 -9999 -9999 -9999 -9999 -9999 -9999 -9999 -9999 -9999 -9999 -9999 -9999 -9999 -9999 -9999 -9999 -9999 -9999 -9999
-9999 -9999 430 430 428 427 426 424 418 413 408 410 413 413 417 426 429 435 435 431 423 416 406 394 380 366 360 347 353 385 399 401 402 414 430 445 458 467 478 485 492 497 491 486 477 469 459 445 435 429 425 418 411 406 399 395 399 407 409 407 405 402 402 403 404 406 416 430 444 454 457 457 457 457 456 453 449 443 439 437 435 432 429 425 422 418 417 417 416 414 410 399 394 392 390 388 385 384 383 381 381 382 377 361 333 300 271 258 257 259 262 261 265 298 340 371 392 402 409 417 424 427 426 424 422 420 419 419 419 418 418 417 417 416 415 414 414 413 412 412 411 410 404 397 392 389 388 386 386 389 393 394 393 393 395 397 400 403 405 403 395 385 379 376 373 369 366 363 359 356 353 349 346 343 341 341 340 339 337 335 333 332 331 330 330 329 328 327 326 326 325 326 326 326 326 327 327 327 327 327 327 327 327 326 325 325 324 323 322 321 319 314 308 302 296 289 270 259 276 292 302 304 304 304 305 305 304 303 300 295 290 286 282 279 276 274 272 271 269 267 266 263 260 257 256 256 254 252 249 245 241 238 235 232 229 224 219 214 213 213 213 213 213 213 213 213 213 213 213 213 213 213 213 213 213 213 213 214 214 214 213 213 213 213 213 213 213 213 218 225 227 219 228 227 225 224 223 223 225 226 226 225 224 230 253 272 276 278 280 281 281 281 281 283 288 -9999 -9999 -9999 -9999 -9999 -9999 -9999 -9999 -9999 -9999 -9999 -9999 -9999 -9999 -9999 -9999 -9999 -9999 -9999 -9999 -9999 -9999 -9999 -9999 -9999 -9999 -9999 -9999 -9999 -9999 -9999 -9999 -9999 -9999 -9999 -9999
-9999 -9999 425 425 424 423 420 416 411 410 414 425 427 427 429 433 437 442 442 440 434 429 422 403 385 380 377 362 366 396 414 421 419 425 439 452 464 477 494 505 505 500 491 484 475 468 460 449 441 437 432 425 420 415 408 406 412 417 420 417 416 419 423 425 425 425 426 436 448 454 457 456 456 455 452 449 445 441 437 434 432 429 427 421 413 409 410 412 413 412 408 399 393 392 391 388 385 383 382 382 381 380 372 363 347 328 299 266 258 259 262 263 263 295 347 383 403 412 420 426 426 426 425 424 423 421 420 419 419 418 418 417 416 415 415 414 413 412 411 408 406 402 396 392 389 387 384 383 381 382 385 385 384 387 390 392 393 393 391 386 380 375 373 370 367 363 361 359 356 353 349 346 342 339 337 337 338 338 335 334 332 331 330 329 328 327 326 325 324 323 323 323 323 324 324 324 325 325 325 325 325 325 325 325 325 324 323 322 321 320 318 313 307 302 296 287 263 259 271 286 296 300 301 302 303 303 302 300 296 291 287 282 278 275 273 271 269 267 265 263 262 260 257 253 250 248 247 244 243 240 237 234 231 227 222 218 214 213 213 213 213 213 213 213 213 213 213 213 213 213 213 213 213 213 213 213 213 213 213 213 213 213 213 213 213 213 213 216 234 242 240 229 224 230 228 225 224 226 235 240 236 232 228 233 260 273 278 282 285 287 288 289 291 300 305 305 -9999 -9999 -9999 -9999 -9999 -9999 -9999 -9999 -9999 -9999 -9999 -9999 -9999 -9999 -9999 -9999 -9999 -9999 -9999 -9999 -9999 -9999 -9999 -9999 -9999 -9999 -9999 -9999 -9999 -9999 -9999 -9999 -9999 -9999 -9999
-9999 -9999 424 424 422 421 418 416 419 424 427 429 430 431 434 438 441 443 443 441 438 434 424 403 391 391 389 367 374 405 425 427 429 433 445 460 475 497 514 517 506 496 486 479 473 466 459 452 445 442 437 432 427 421 416 414 419 426 433 431 431 435 438 438 437 437 439 447 457 458 457 455 453 451 448 445 442 439 436 433 430 426 423 417 410 408 408 408 409 408 403 396 391 393 393 390 384 383 383 383 382 378 370 359 343 330 307 274 259 260 263 264 267 300 353 391 410 421 427 427 426 425 425 424 423 422 421 420 419 418 418 417 416 415 414 413 412 411 408 403 400 396 393 390 387 384 381 379 377 376 376 375 376 383 387 388 388 385 381 376 373 370 367 365 363 360 357 354 352 349 346 341 337 335 334 335 336 336 335 333 331 330 328 327 326 325 324 323 321 320 320 320 321 321 321 322 323 323 323 323 324 324 324 324 324 323 322 322 321 320 317 312 307 302 296 288 268 257 262 282 293 297 298 299 300 300 299 297 293 289 284 279 275 272 269 267 265 263 261 260 258 257 254 250 245 242 241 240 238 236 234 230 227 221 216 213 213 213 213 213 213 213 213 213 213 213 213 213 213 213 213 213 213 213 213 213 213 213 213 213 213 213 213 213 218 221 220 222 241 245 245 240 226 237 240 235 230 240 249 253 253 250 246 245 258 275 282 287 289 291 295 299 306 315 319 315 -9999 -9999 -9999 -9999 -9999 -9999 -9999 -9999 -9999 -9999 -9999 -9999 -9999 -9999 -9999 -9999 -9999 -9999 -9999 -9999 -9999 -9999 -9999 -9999 -9999 -9999 -9999 -9999 -9999 -9999 -9999 -9999 -9999 -9999 -9999
-9999 -9999 424 424 422 421 420 421 424 427 429 430 431 433 436 439 441 443 443 442 441 438 425 407 400 407 397 374 378 405 421 429 436 442 453 471 493 514 517 515 503 491 483 476 470 464 458 453 448 444 441 439 433 428 423 424 430 439 443 443 444 446 447 447 447 446 447 452 456 457 456 453 450 447 445 442 440 437 434 430 428 425 419 414 409 406 405 404 403 400 397 388 382 394 397 393 381 379 382 383 382 374 362 346 323 301 277 260 259 261 264 266 267 310 359 393 411 426 428 427 426 425 424 424 423 422 421 420 420 419 418 417 416 415 414 413 412 411 404 398 396 392 390 388 385 383 379 376 373 369 365 365 367 379 384 384 382 376 371 368 367 365 363 361 359 355 352 350 348 346 341 337 334 333 333 334 334 334 333 332 330 329 327 326 325 324 323 321 320 319 319 319 319 319 319 320 321 321 322 322 322 322 323 323 323 322 321 321 320 319 315 311 306 301 296 289 277 260 256 275 289 294 295 296 297 297 296 294 291 288 282 275 271 269 266 264 261 259 258 256 254 252 249 246 243 240 237 235 233 232 230 225 219 214 213 213 213 213 213 213 213 213 213 213 213 213 213 213 213 213 213 213 213 213 213 213 213 213 213 213 213 214 220 230 239 242 237 226 241 248 250 246 234 231 252 257 253 254 259 265 265 263 263 261 259 272 282 289 294 297 299 304 312 318 319 320 -9999 -9999 -9999 -9999 -9999 -9999 -9999 -9999 -9999 -9999 -9999 -9999 -9999 -9999 -9999 -9999 -9999 -9999 -9999 -9999 -9999 -9999 -9999 -9999 -9999 -9999 -9999 -9999 -9999 -9999 -9999 -9999 -9999 -9999 -9999
-9999 -9999 425 424 424 422 422 424 425 427 429 431 433 434 437 440 441 443 443 443 443 442 430 419 415 410 396 387 382 388 413 428 437 444 457 477 499 517 517 510 499 487 478 471 465 459 456 453 449 446 444 442 440 438 436 439 442 444 447 449 452 455 456 456 455 453 453 453 454 454 452 450 447 444 442 439 437 434 431 427 426 423 415 411 407 404 402 400 398 392 384 371 377 394 398 395 384 371 371 374 374 364 342 319 293 270 261 257 260 261 264 268 279 323 367 396 409 424 428 427 426 425 424 424 423 422 422 421 420 420 419 418 417 416 414 413 412 411 403 393 390 387 386 384 383 381 378 374 371 368 365 363 363 368 376 379 370 363 362 362 361 360 359 356 354 351 349 347 345 342 338 334 333 332 332 332 332 332 331 330 329 328 326 324 323 322 321 320 319 319 319 318 319 319 319 319 320 320 320 321 321 321 321 322 321 321 320 320 319 317 314 310 305 301 296 292 284 270 254 260 278 290 293 294 295 295 294 292 290 286 279 273 269 266 263 260 258 256 254 251 249 247 245 243 241 238 235 231 228 227 223 216 213 213 213 213 213 213 213 213 213 213 213 213 213 213 213 213 213 213 213 213 213 213 213 213 213 213 213 221 230 237 244 253 259 259 250 231 242 254 256 255 242 239 259 267 267 264 270 276 272 274 277 278 278 281 286 290 299 303 305 313 320 326 326 327 -9999 -9999 -9999 -9999 -9999 -9999 -9999 -9999 -9999 -9999 -9999 -9999 -9999 -9999 -9999 -9999 -9999 -9999 -9999 -9999 -9999 -9999 -9999 -9999 -9999 -9999 -9999 -9999 -9999 -9999 -9999 -9999 -9999 -9999 -9999
-9999 -9999 -9999 427 426 424 425 428 429 430 431 432 434 435 438 440 441 442 443 443 443 442 435 424 413 408 403 411 405 390 400 420 432 438 451 471 492 508 511 505 494 482 472 464 458 455 453 452 449 447 445 443 443 443 443 445 446 448 451 454 457 460 462 463 462 459 455 454 452 451 449 447 443 441 440 438 435 433 430 427 425 420 413 410 408 405 401 397 394 386 371 363 379 391 395 392 382 366 362 364 363 346 317 291 272 258 260 256 260 260 261 269 300 335 376 399 407 422 427 426 425 425 424 424 423 423 423 422 421 421 420 419 417 416 414 413 412 410 401 392 385 382 382 381 380 377 373 370 368 366 364 362 361 361 362 364 361 358 357 357 357 356 354 352 350 348 346 343 341 338 335 333 332 331 330 330 330 330 329 329 328 326 325 323 321 320 320 319 319 318 318 318 318 318 318 318 319 319 319 319 319 319 320 320 320 320 319 318 317 315 312 309 305 302 297 294 290 281 263 251 262 285 291 292 292 293 292 291 288 283 276 271 267 263 259 258 255 252 249 246 244 243 241 239 238 236 233 230 227 219 213 213 213 213 213 213 213 213 213 213 213 213 213 213 213 213 213 213 213 213 213 213 213 213 213 213 213 215 227 246 256 258 259 259 258 259 257 243 250 262 266 267 249 246 268 275 276 276 279 284 287 293 301 305 306 305 309 312 314 315 320 325 331 337 335 334 -9999 -9999 -9999 -9999 -9999 -9999 -9999 -9999 -9999 -9999 -9999 -9999 -9999 -9999 -9999 -9999 -9999 -9999 -9999 -9999 -9999 -9999 -9999 -9999 -9999 -9999 -9999 -9999 -9999 -9999 -9999 -9999 -9999 -9999 -9999
-9999 -9999 -9999 432 431 427 429 433 435 435 435 434 435 436 438 440 441 441 442 442 442 440 429 423 420 423 424 426 425 417 399 407 425 433 439 454 477 498 504 499 487 478 467 457 454 452 450 449 448 446 445 443 443 443 444 447 449 451 454 458 462 465 467 469 469 466 457 454 451 449 447 444 441 439 438 436 434 432 429 427 426 421 416 413 412 407 401 396 390 380 364 362 377 383 386 384 375 361 363 364 345 317 288 267 259 253 254 258 259 262 272 298 328 356 388 402 408 424 426 426 425 425 425 425 425 424 424 423 422 422 420 419 417 416 414 412 410 403 396 389 382 379 378 377 375 371 368 366 365 364 362 360 358 357 356 355 355 353 351 352 353 352 351 349 347 345 343 340 338 335 333 332 330 329 329 329 329 328 327 327 326 325 324 322 320 319 319 318 318 317 317 317 317 318 318 318 318 317 317 317 316 317 317 318 318 318 317 316 315 313 311 308 305 302 298 295 291 287 269 253 254 275 288 291 291 290 290 288 285 279 274 269 264 260 256 254 251 248 245 242 241 239 237 236 234 233 231 228 219 213 213 213 213 213 213 213 213 213 213 213 213 213 213 213 213 213 213 213 213 213 213 213 213 213 213 213 216 231 249 261 262 261 259 262 267 274 264 249 260 269 273 275 263 254 274 280 281 283 286 292 302 310 318 323 324 325 330 333 333 331 335 339 341 344 343 342 -9999 -9999 -9999 -9999 -9999 -9999 -9999 -9999 -9999 -9999 -9999 -9999 -9999 -9999 -9999 -9999 -9999 -9999 -9999 -9999 -9999 -9999 -9999 -9999 -9999 -9999 -9999 -9999 -9999 -9999 -9999 -9999 -9999 -9999 -9999
-9999 -9999 -9999 438 437 437 440 440 440 440 439 438 437 437 438 440 441 441 441 441 439 435 435 432 436 437 433 430 428 423 410 397 421 431 436 441 459 485 496 489 481 472 462 454 451 449 447 446 446 445 444 443 442 442 444 447 451 455 457 464 469 470 471 473 473 470 459 453 450 447 445 443 440 438 436 434 433 430 428 427 426 425 422 417 413 408 401 395 388 378 355 355 369 374 374 372 366 357 366 357 321 288 263 258 255 257 261 268 278 293 312 337 362 386 402 407 409 420 424 424 424 424 426 429 430 428 426 425 423 422 421 419 417 415 413 411 406 397 392 387 382 378 375 373 370 367 364 363 361 360 359 358 356 355 352 349 351 349 347 348 349 349 348 346 344 342 339 337 335 333 331 329 329 328 327 327 327 326 326 325 324 323 322 321 320 319 318 318 317 317 317 317 317 317 317 317 317 316 315 314 313 312 312 313 314 314 314 313 313 312 310 308 305 302 299 295 292 289 275 260 247 261 277 285 287 288 288 285 281 277 272 266 261 257 253 250 247 244 242 240 238 236 234 232 231 230 227 218 213 213 213 213 213 213 213 213 213 213 213 213 213 213 213 213 213 213 213 213 213 213 213 213 213 213 213 217 230 253 270 271 263 267 278 286 288 283 269 253 263 273 274 275 263 261 282 289 290 292 298 308 318 326 332 336 335 336 339 343 345 347 349 349 351 351 350 348 -9999 -9999 -9999 -9999 -9999 -9999 -9999 -9999 -9999 -9999 -9999 -9999 -9999 -9999 -9999 -9999 -9999 -9999 -9999 -9999 -9999 -9999 -9999 -9999 -9999 -9999 -9999 -9999 -9999 -9999 -9999 -9999 -9999 -9999 -9999
-9999 -9999 -9999 442 442 442 443 442 442 441 441 440 439 438 439 440 441 440 440 440 440 441 441 442 442 441 439 434 429 425 419 405 418 430 435 439 448 470 484 481 476 467 456 451 448 446 444 443 443 442 442 441 440 441 442 447 454 461 468 473 473 473 473 474 472 462 454 451 448 445 443 441 440 438 435 433 431 429 427 426 427 427 425 415 409 405 400 396 388 376 353 341 362 366 362 359 355 357 365 347 300 269 256 253 256 271 293 313 329 348 365 384 399 410 411 410 412 417 420 421 422 424 428 435 436 434 431 428 425 423 421 419 416 414 412 407 400 394 390 386 382 378 374 371 367 364 361 360 358 357 356 355 354 353 351 346 345 344 344 344 345 345 343 342 340 338 336 334 333 330 328 327 326 326 326 325 325 325 324 323 322 322 321 320 319 318 317 317 316 316 316 316 316 316 316 316 316 315 313 312 310 308 306 308 309 310 311 311 310 310 308 307 305 303 299 296 292 289 281 262 244 248 254 270 280 283 283 281 278 275 269 262 257 253 249 247 244 242 240 238 235 233 230 227 225 219 214 213 213 213 213 213 213 214 214 214 214 214 213 213 213 213 213 213 213 213 213 213 213 213 213 213 213 214 219 229 249 270 278 281 284 288 289 285 279 272 262 257 265 271 277 280 262 271 298 307 309 311 314 322 330 338 341 342 342 343 345 349 351 352 353 354 354 355 354 353 350 -9999 -9999 -9999 -9999 -9999 -9999 -9999 -9999 -9999 -9999 -9999 -9999 -9999 -9999 -9999 -9999 -9999 -9999 -9999 -9999 -9999 -9999 -9999 -9999 -9999 -9999 -9999 -9999 -9999 -9999 -9999 -9999 -9999 -9999
-9999 -9999 -9999 444 444 444 444 444 443 443 442 441 441 440 440 441 441 441 441 441 442 442 443 443 442 441 441 436 430 427 424 416 420 429 433 436 440 452 463 469 467 460 453 447 444 442 440 439 439 439 439 438 438 439 439 446 460 469 472 474 474 474 474 473 468 456 451 448 445 443 441 440 439 437 435 433 431 428 426 424 427 427 424 415 408 401 394 390 382 365 341 327 349 356 355 352 350 354 361 340 286 262 254 253 267 295 325 354 380 399 411 419 421 417 410 411 413 415 417 420 423 426 432 440 441 439 436 431 427 425 422 419 416 413 408 401 394 392 388 384 381 378 374 370 367 363 360 357 355 353 352 352 351 350 349 342 339 339 339 339 340 340 339 338 337 335 334 332 330 327 325 324 324 325 324 324 324 323 322 321 321 320 320 319 318 317 317 316 316 315 315 315 316 316 316 315 315 313 312 311 309 306 303 304 306 307 308 308 308 308 307 306 304 302 298 295 293 290 282 267 246 242 247 252 273 278 279 277 275 270 264 257 252 248 245 243 242 240 238 236 233 230 225 219 214 213 213 213 213 213 213 214 214 214 214 214 214 214 214 213 213 213 213 213 213 213 213 213 213 213 213 213 214 221 229 252 272 279 287 297 302 290 282 274 274 281 270 260 279 290 297 300 275 274 305 321 325 326 326 332 340 347 349 349 348 348 350 353 355 356 356 357 357 358 358 357 355 -9999 -9999 -9999 -9999 -9999 -9999 -9999 -9999 -9999 -9999 -9999 -9999 -9999 -9999 -9999 -9999 -9999 -9999 -9999 -9999 -9999 -9999 -9999 -9999 -9999 -9999 -9999 -9999 -9999 -9999 -9999 -9999 -9999 -9999
-9999 -9999 -9999 446 446 446 445 445 445 444 443 442 442 441 442 442 443 443 442 443 443 443 444 443 443 442 441 438 433 432 427 419 425 428 431 434 436 440 446 449 451 447 444 441 440 439 437 435 435 434 434 435 435 436 438 446 461 472 473 473 473 473 471 466 457 452 448 445 443 441 439 439 438 437 435 433 431 429 427 423 418 419 417 412 407 401 395 387 375 356 337 320 322 328 336 342 342 347 351 330 279 255 249 257 283 317 346 380 410 418 422 426 424 415 410 410 412 413 415 420 424 429 435 441 445 443 439 435 430 426 423 420 417 414 410 401 394 391 387 383 379 376 373 369 366 363 358 355 352 350 349 348 348 346 342 335 334 335 335 335 336 336 335 335 334 333 331 329 327 324 321 320 322 323 323 322 322 322 321 320 319 319 318 318 317 316 316 315 315 315 315 315 315 316 315 315 313 311 310 309 308 306 304 303 303 304 306 305 306 305 305 305 303 299 297 295 292 291 291 284 264 247 243 244 266 275 275 274 270 265 258 252 246 243 242 241 239 237 236 233 230 225 219 213 213 213 213 213 213 213 214 214 214 214 214 214 214 214 214 213 213 213 213 213 213 213 213 213 213 213 213 213 219 229 248 279 296 296 303 303 298 288 287 288 294 306 288 267 295 308 312 316 292 273 301 326 336 338 340 347 350 353 354 354 354 355 356 357 358 359 360 360 361 361 362 362 359 -9999 -9999 -9999 -9999 -9999 -9999 -9999 -9999 -9999 -9999 -9999 -9999 -9999 -9999 -9999 -9999 -9999 -9999 -9999 -9999 -9999 -9999 -9999 -9999 -9999 -9999 -9999 -9999 -9999 -9999 -9999 -9999 -9999 -9999
-9999 -9999 -9999 448 448 447 447 446 446 445 444 443 443 442 442 443 444 444 444 444 444 445 445 444 442 441 441 440 439 440 428 425 429 430 430 432 434 436 436 437 438 436 434 433 432 433 432 431 429 429 429 431 432 434 436 441 451 459 463 465 464 462 458 454 451 447 444 442 440 440 439 438 437 436 434 433 431 430 428 427 419 410 410 408 404 400 395 387 373 352 338 322 315 305 308 322 331 337 341 318 273 251 252 263 298 334 367 398 422 424 425 426 420 412 408 407 409 411 412 420 427 433 439 444 449 447 443 439 433 427 424 421 418 415 411 403 396 391 387 383 379 376 371 368 364 358 355 352 350 348 347 345 344 342 338 334 333 333 333 333 333 333 333 332 331 330 328 326 324 322 319 319 320 321 321 321 320 320 320 319 318 318 317 316 316 315 315 314 314 314 314 315 315 315 315 314 312 309 306 306 306 306 304 303 303 301 295 295 297 301 302 300 297 296 295 294 292 291 292 291 283 269 248 239 256 269 270 268 264 258 252 246 242 241 240 238 236 235 233 231 226 218 213 213 213 213 213 213 213 213 214 214 214 214 214 214 214 214 214 213 213 213 213 213 213 213 213 213 213 213 213 215 226 247 266 287 311 320 316 303 304 303 299 304 315 321 301 274 299 319 321 320 308 279 294 329 340 344 349 353 355 356 358 360 362 363 363 362 362 363 363 363 363 364 365 364 361 -9999 -9999 -9999 -9999 -9999 -9999 -9999 -9999 -9999 -9999 -9999 -9999 -9999 -9999 -9999 -9999 -9999 -9999 -9999 -9999 -9999 -9999 -9999 -9999 -9999 -9999 -9999 -9999 -9999 -9999 -9999 -9999 -9999 -9999
-9999 -9999 -9999 450 449 449 448 448 447 446 445 444 443 443 443 444 445 445 445 446 446 446 447 445 442 441 441 440 441 437 426 430 434 435 432 432 434 434 433 430 429 426 425 423 422 427 426 425 424 424 425 428 430 432 435 438 443 446 449 451 451 449 448 446 444 443 441 440 439 439 438 437 436 435 433 432 431 429 428 427 425 413 409 405 402 398 395 385 369 351 341 335 333 323 307 297 308 320 326 306 265 248 252 271 312 352 387 405 423 427 426 422 415 409 405 404 403 403 409 424 434 440 445 451 454 453 448 442 436 430 425 422 418 415 412 404 396 391 387 384 380 375 370 365 359 351 350 349 347 345 344 342 341 338 335 333 332 331 331 331 331 331 330 330 329 327 326 324 322 320 318 318 319 320 320 320 319 319 318 318 317 316 316 315 314 314 313 313 313 314 314 315 315 316 315 314 311 307 303 303 303 303 304 303 305 304 300 290 283 283 284 285 286 289 291 291 290 291 290 291 290 281 261 239 242 257 261 261 258 251 246 242 240 239 237 236 234 232 231 229 222 213 213 213 213 213 213 213 213 213 214 214 214 214 214 214 214 214 214 213 213 213 213 213 213 213 213 213 213 213 213 220 238 263 281 293 319 333 322 318 329 324 314 324 333 331 308 276 299 320 325 325 316 288 296 331 345 349 353 357 359 360 362 364 365 366 365 365 364 365 365 364 365 364 362 361 360 -9999 -9999 -9999 -9999 -9999 -9999 -9999 -9999 -9999 -9999 -9999 -9999 -9999 -9999 -9999 -9999 -9999 -9999 -9999 -9999 -9999 -9999 -9999 -9999 -9999 -9999 -9999 -9999 -9999 -9999 -9999 -9999 -9999 -9999
-9999 -9999 -9999 -9999 451 450 450 449 448 447 446 445 444 444 444 444 446 446 447 447 447 448 448 445 442 438 437 438 437 430 438 439 440 441 436 434 435 435 433 426 423 420 416 412 411 412 416 416 417 419 422 425 428 431 433 436 437 439 440 439 439 441 441 441 440 440 439 439 438 438 437 436 435 434 433 432 430 428 427 426 422 414 409 404 399 397 390 377 365 358 352 352 351 341 323 296 287 286 288 278 257 245 254 279 322 365 394 403 413 423 421 415 411 407 403 400 398 396 411 426 440 454 457 460 461 458 452 445 439 434 428 424 417 412 411 404 395 391 387 384 380 375 369 362 354 349 347 346 344 343 342 340 338 336 334 333 331 330 330 329 329 329 328 327 326 325 323 321 320 318 317 317 318 319 319 319 318 317 317 316 316 315 314 314 313 313 313 313 313 313 314 315 316 316 316 314 312 308 305 304 302 299 298 299 300 303 303 296 284 278 274 272 271 273 274 275 279 282 281 286 290 288 271 243 235 245 252 253 249 243 240 239 238 237 235 234 232 231 228 223 213 213 213 213 213 213 213 213 213 213 214 214 214 214 214 214 214 214 214 213 213 213 213 213 213 213 213 213 213 213 217 230 256 282 302 309 331 335 335 341 341 333 330 334 336 334 316 290 293 319 328 330 318 293 304 338 351 353 357 360 363 364 365 365 365 365 365 365 365 365 365 365 365 364 361 359 357 -9999 -9999 -9999 -9999 -9999 -9999 -9999 -9999 -9999 -9999 -9999 -9999 -9999 -9999 -9999 -9999 -9999 -9999 -9999 -9999 -9999 -9999 -9999 -9999 -9999 -9999 -9999 -9999 -9999 -9999 -9999 -9999 -9999 -9999
-9999 -9999 -9999 -9999 452 452 451 450 449 448 447 445 444 444 444 445 446 447 448 449 449 449 450 446 440 438 441 438 435 441 444 444 442 440 436 436 438 438 440 437 433 428 420 414 409 408 408 409 410 413 418 423 426 429 431 433 435 436 437 437 437 438 438 438 438 438 438 437 437 437 437 436 435 434 433 432 430 427 426 424 419 414 410 402 395 390 385 383 380 373 369 364 359 352 337 313 294 283 279 266 253 244 255 285 328 372 394 399 403 410 413 410 407 404 402 398 396 402 420 432 447 461 471 472 470 464 457 449 443 437 432 427 417 409 404 400 395 390 386 383 380 374 368 362 353 348 346 343 342 341 339 338 336 335 333 331 330 329 328 328 327 327 326 325 324 323 321 320 319 317 316 316 316 317 317 317 316 316 315 315 314 313 313 312 312 312 312 312 313 313 314 315 316 317 316 315 313 311 308 306 305 305 304 302 300 292 290 288 286 288 288 281 278 276 271 267 263 262 259 267 282 281 269 242 230 241 246 246 243 239 237 236 236 235 233 232 231 230 224 213 213 213 213 213 213 213 213 213 213 213 214 214 214 214 214 214 214 214 214 213 213 213 213 213 213 213 213 213 213 213 229 250 278 308 331 336 343 348 350 352 349 340 337 338 339 337 329 309 295 318 332 336 326 298 304 337 349 354 360 365 365 365 365 365 365 365 365 366 366 366 366 365 365 363 360 357 355 -9999 -9999 -9999 -9999 -9999 -9999 -9999 -9999 -9999 -9999 -9999 -9999 -9999 -9999 -9999 -9999 -9999 -9999 -9999 -9999 -9999 -9999 -9999 -9999 -9999 -9999 -9999 -9999 -9999 -9999 -9999 -9999 -9999 -9999
-9999 -9999 -9999 -9999 453 453 452 451 450 449 447 446 445 445 445 446 447 448 449 450 450 451 451 446 441 440 443 444 444 445 447 445 441 438 439 445 449 452 456 450 443 436 426 417 410 405 403 404 406 409 414 419 424 427 429 431 432 434 435 435 436 436 436 436 436 436 436 436 436 437 436 436 435 434 433 431 430 427 426 424 423 420 413 407 400 396 396 392 390 385 380 374 367 357 342 327 311 307 311 291 256 243 254 284 322 362 384 391 393 398 401 403 402 401 399 395 395 410 428 438 451 462 469 475 476 472 462 453 445 439 433 429 422 412 401 395 392 389 385 381 378 373 367 361 355 350 345 342 340 338 337 336 334 333 331 330 329 328 327 326 326 325 324 323 322 321 320 318 317 316 315 314 315 315 315 315 314 314 314 313 313 312 312 311 311 311 312 312 313 314 315 316 317 317 317 316 315 313 311 310 308 308 307 307 307 306 305 303 300 297 295 292 290 286 285 282 277 272 263 252 262 269 262 240 227 228 236 239 236 234 233 233 233 233 232 231 229 225 215 213 213 213 213 213 213 213 213 213 213 213 213 214 214 214 214 214 213 213 213 213 213 213 213 213 213 213 213 213 213 227 250 275 304 336 345 348 349 350 351 351 349 344 341 341 341 340 337 323 302 323 335 338 335 314 305 325 344 350 359 366 367 366 366 365 365 366 366 366 366 366 366 365 364 361 358 360 360 359 -9999 -9999 -9999 -9999 -9999 -9999 -9999 -9999 -9999 -9999 -9999 -9999 -9999 -9999 -9999 -9999 -9999 -9999 -9999 -9999 -9999 -9999 -9999 -9999 -9999 -9999 -9999 -9999 -9999 -9999 -9999 -9999 -9999
-9999 -9999 -9999 -9999 455 454 454 453 451 450 448 447 446 445 446 446 447 449 450 451 452 453 451 446 441 442 445 446 447 448 449 446 441 444 454 462 467 465 461 453 443 436 426 418 411 404 400 399 402 407 412 416 420 424 426 429 430 432 433 434 434 435 435 435 435 435 435 435 435 436 436 435 434 433 432 431 430 428 427 427 426 425 422 416 412 406 401 398 397 391 385 382 373 359 345 330 322 326 324 298 255 244 250 277 312 342 364 376 382 386 388 392 396 394 389 387 399 413 433 450 461 468 471 478 485 481 470 456 445 439 434 429 423 415 405 395 391 388 384 380 376 372 366 360 353 349 344 341 338 336 335 334 333 331 330 328 327 326 325 324 324 323 323 322 321 320 318 317 316 315 314 313 313 313 313 313 313 312 312 312 311 311 310 310 310 311 312 313 314 315 316 317 317 318 318 318 317 315 314 313 312 311 310 309 308 308 308 307 305 302 299 296 294 292 291 290 286 279 274 261 245 257 255 244 229 226 229 229 228 229 229 230 231 231 230 229 225 217 213 213 213 213 213 213 213 213 213 213 213 213 213 214 214 214 214 213 213 213 213 213 213 213 213 213 213 213 213 213 227 250 276 304 332 349 346 347 348 350 351 351 350 347 345 345 344 342 338 329 306 328 334 340 340 331 317 313 321 327 340 353 362 364 365 366 366 366 366 366 366 366 366 364 363 360 362 370 369 364 -9999 -9999 -9999 -9999 -9999 -9999 -9999 -9999 -9999 -9999 -9999 -9999 -9999 -9999 -9999 -9999 -9999 -9999 -9999 -9999 -9999 -9999 -9999 -9999 -9999 -9999 -9999 -9999 -9999 -9999 -9999 -9999 -9999
-9999 -9999 -9999 -9999 456 456 455 454 452 450 449 447 446 446 446 447 448 449 451 452 453 453 449 442 440 442 447 450 450 451 452 451 451 457 469 473 474 471 460 449 440 433 425 416 409 403 396 396 399 404 409 413 416 420 423 427 428 430 431 432 432 433 433 434 434 434 434 434 434 435 435 435 434 433 432 431 430 429 428 427 426 426 425 419 414 409 404 400 397 392 387 382 373 361 347 335 332 337 330 296 252 244 248 269 299 326 344 355 363 366 371 372 371 366 371 387 398 407 426 450 469 472 471 481 489 487 472 457 443 437 433 429 424 417 407 396 391 387 383 380 375 370 366 358 350 346 342 339 336 334 333 332 331 329 328 327 326 325 324 323 322 322 321 321 320 318 317 316 315 314 313 312 311 311 311 311 311 311 310 310 310 310 310 310 310 311 312 313 315 316 317 318 318 319 319 319 318 317 316 316 315 314 313 312 311 310 309 307 306 304 301 299 296 294 292 290 286 280 275 260 244 244 245 239 227 224 225 223 219 218 221 225 229 229 228 225 218 213 213 213 213 213 213 213 213 213 213 213 213 213 213 214 214 214 213 213 213 213 213 213 213 213 213 213 213 213 213 228 249 274 301 332 343 349 350 351 351 351 351 351 350 348 348 348 347 345 342 333 315 333 339 344 345 342 339 335 331 329 334 335 337 342 355 362 365 365 366 366 366 366 366 366 363 361 368 381 377 367 -9999 -9999 -9999 -9999 -9999 -9999 -9999 -9999 -9999 -9999 -9999 -9999 -9999 -9999 -9999 -9999 -9999 -9999 -9999 -9999 -9999 -9999 -9999 -9999 -9999 -9999 -9999 -9999 -9999 -9999 -9999 -9999 -9999
-9999 -9999 -9999 -9999 457 457 456 455 453 451 449 448 447 446 447 447 449 450 451 453 454 454 451 443 445 449 452 453 453 453 455 458 465 474 478 478 474 469 460 446 436 429 422 414 407 401 396 394 396 399 405 409 411 415 420 424 426 428 429 430 431 431 432 432 433 433 433 433 434 434 434 434 434 433 432 431 431 430 429 428 427 427 426 422 413 409 405 401 397 393 388 383 376 364 354 349 345 345 333 299 254 242 244 259 280 306 327 338 341 337 339 343 342 356 377 385 390 396 411 429 452 465 467 475 486 481 465 451 440 436 433 430 426 418 405 394 389 385 381 378 373 369 364 352 347 343 340 337 334 332 331 330 329 327 326 325 324 323 322 321 321 320 320 319 318 317 316 315 314 313 312 310 310 310 309 309 309 309 309 309 309 309 309 309 310 311 313 314 316 317 318 319 319 319 319 319 319 319 319 318 317 317 315 314 313 311 310 308 306 304 303 299 296 293 290 287 280 275 269 258 243 240 236 235 232 228 224 224 227 227 218 216 221 223 220 217 213 213 213 213 213 213 213 213 213 213 213 213 213 213 213 214 214 213 213 213 213 213 213 213 213 213 213 213 213 213 226 248 266 289 319 346 348 350 352 352 353 353 353 352 351 350 351 350 350 349 346 336 323 337 345 348 350 351 354 355 352 349 349 348 345 336 341 351 351 353 360 361 365 364 366 366 364 363 368 376 373 366 -9999 -9999 -9999 -9999 -9999 -9999 -9999 -9999 -9999 -9999 -9999 -9999 -9999 -9999 -9999 -9999 -9999 -9999 -9999 -9999 -9999 -9999 -9999 -9999 -9999 -9999 -9999 -9999 -9999 -9999 -9999 -9999 -9999
-9999 -9999 -9999 -9999 457 457 457 456 454 452 450 448 447 447 447 448 449 451 452 454 455 456 457 458 459 459 459 459 459 461 469 478 486 486 483 479 473 465 456 442 431 424 417 411 403 397 394 393 394 396 401 405 408 411 414 418 422 425 427 428 429 430 430 431 431 432 432 432 433 433 433 433 433 433 432 431 431 430 429 428 428 427 426 424 416 411 407 403 398 394 390 385 380 370 362 358 356 353 343 312 265 245 242 249 263 282 302 316 318 310 309 321 346 364 372 379 383 389 397 411 429 444 456 466 471 462 448 440 437 435 432 430 426 416 400 391 387 383 379 374 369 364 357 348 344 341 338 335 333 331 329 327 326 325 324 323 321 320 320 320 319 319 318 318 317 316 316 315 313 312 311 310 308 308 308 308 308 308 308 308 308 308 309 309 311 312 313 315 317 319 319 320 320 320 320 320 320 320 320 320 320 319 318 316 314 312 310 308 306 305 302 298 293 290 285 279 274 270 264 258 249 244 244 245 243 241 237 234 232 231 227 216 213 213 213 213 213 213 213 213 213 213 213 213 213 213 213 213 213 214 214 214 214 213 213 213 213 213 213 213 213 213 213 213 213 215 235 258 277 306 338 351 353 353 354 354 354 355 355 354 353 353 352 352 351 351 350 337 334 344 351 353 356 360 364 365 363 361 363 360 355 347 344 359 361 358 351 351 350 350 357 364 364 364 364 365 366 364 -9999 -9999 -9999 -9999 -9999 -9999 -9999 -9999 -9999 -9999 -9999 -9999 -9999 -9999 -9999 -9999 -9999 -9999 -9999 -9999 -9999 -9999 -9999 -9999 -9999 -9999 -9999 -9999 -9999 -9999 -9999 -9999 -9999
-9999 -9999 -9999 -9999 -9999 457 456 456 454 452 450 449 448 447 448 449 450 451 453 455 456 458 460 462 463 464 465 466 468 472 482 496 496 490 484 478 471 460 451 440 429 420 413 407 400 395 393 392 393 395 398 401 403 406 409 411 415 420 424 427 427 428 429 429 430 430 431 431 432 432 432 433 432 432 431 431 430 429 429 428 428 427 426 424 418 413 409 404 400 396 392 387 383 377 367 365 364 362 355 327 283 250 242 243 251 263 277 288 291 300 312 334 352 360 360 364 374 385 391 398 415 430 443 457 459 447 439 438 435 433 431 428 423 410 395 389 384 379 375 370 364 359 352 347 343 339 336 334 332 329 327 326 324 323 322 320 320 319 319 319 318 317 317 316 316 315 315 314 313 311 310 309 307 306 306 306 306 306 307 307 307 308 308 309 311 312 314 316 318 320 320 320 320 320 320 320 320 320 320 320 320 320 319 317 315 312 310 308 306 304 301 296 291 285 277 272 268 264 260 256 252 249 248 248 247 245 244 240 236 232 229 221 213 213 213 213 213 213 213 213 213 213 213 213 213 213 213 213 214 214 214 214 214 213 213 213 213 213 213 213 213 213 213 213 213 214 237 265 296 328 349 354 354 355 356 356 356 356 356 356 355 355 354 354 353 351 349 342 341 351 355 358 362 365 366 367 367 366 366 365 359 348 351 365 364 365 365 365 361 358 355 362 364 364 363 362 363 362 -9999 -9999 -9999 -9999 -9999 -9999 -9999 -9999 -9999 -9999 -9999 -9999 -9999 -9999 -9999 -9999 -9999 -9999 -9999 -9999 -9999 -9999 -9999 -9999 -9999 -9999 -9999 -9999 -9999 -9999 -9999 -9999 -9999
-9999 -9999 -9999 -9999 -9999 456 456 455 453 452 450 449 448 448 448 449 451 452 454 456 457 459 462 465 466 469 470 472 475 481 492 502 501 493 484 476 465 453 446 438 429 419 411 404 398 394 392 391 392 394 395 396 399 400 402 406 409 413 417 421 425 425 427 428 429 429 430 430 431 431 432 432 432 431 431 430 430 429 428 428 427 427 426 424 419 414 410 406 402 397 393 389 386 382 377 373 370 367 363 341 304 264 244 242 243 249 256 264 269 283 292 312 332 344 352 358 367 381 385 390 398 415 429 442 446 439 437 436 434 432 430 426 415 404 393 387 381 375 370 365 359 353 348 345 341 338 335 332 330 328 326 324 322 320 320 320 318 317 317 317 316 315 315 315 314 314 313 313 312 311 309 308 307 305 304 304 305 305 306 306 307 307 308 310 311 313 314 316 319 320 320 320 320 320 320 320 320 320 320 320 320 320 320 317 314 312 310 307 305 303 298 293 288 280 273 268 263 259 257 255 253 252 250 248 246 245 243 240 236 232 228 220 213 213 213 213 213 213 213 213 213 213 213 213 213 213 214 214 214 214 214 214 214 213 213 213 213 213 213 213 213 213 213 213 213 222 250 287 323 347 353 355 355 356 357 357 358 358 358 358 357 356 356 355 353 351 350 344 349 355 359 362 365 367 368 368 368 368 367 366 362 349 353 366 366 367 367 368 368 367 364 365 364 364 362 361 360 359 -9999 -9999 -9999 -9999 -9999 -9999 -9999 -9999 -9999 -9999 -9999 -9999 -9999 -9999 -9999 -9999 -9999 -9999 -9999 -9999 -9999 -9999 -9999 -9999 -9999 -9999 -9999 -9999 -9999 -9999 -9999 -9999 -9999
-9999 -9999 -9999 -9999 -9999 455 455 454 453 452 450 449 449 448 449 450 451 453 454 457 459 461 464 466 470 472 474 476 480 488 502 504 503 493 481 470 456 448 441 433 425 418 411 403 396 393 391 390 390 391 392 393 394 395 396 400 404 407 410 411 414 418 422 427 428 428 429 430 430 431 431 431 431 431 430 430 429 429 428 427 427 426 426 423 419 415 411 409 404 399 395 391 388 384 382 379 372 367 362 347 319 283 248 246 243 243 247 252 255 260 266 274 293 313 338 351 359 369 376 383 389 399 417 430 435 435 435 435 433 431 429 425 411 399 392 385 378 370 365 359 354 350 346 343 339 336 334 331 328 326 324 322 321 319 318 318 317 316 315 314 314 314 313 313 313 312 312 312 311 310 309 307 306 304 303 303 304 304 305 305 306 307 308 310 311 313 314 316 319 320 320 320 320 320 320 320 320 320 320 320 320 320 318 316 313 311 309 307 304 300 294 288 282 274 269 265 261 257 255 254 252 250 248 246 245 243 240 237 233 228 219 213 213 213 213 213 213 213 213 213 213 213 213 213 213 214 214 214 214 214 214 214 213 213 213 213 213 213 213 213 213 213 213 213 217 239 274 312 342 351 353 355 356 357 358 359 359 360 360 359 359 358 357 356 353 351 349 349 352 358 362 365 367 368 369 370 369 368 366 365 364 350 356 367 368 368 369 369 369 369 367 367 366 365 363 360 358 357 356 -9999 -9999 -9999 -9999 -9999 -9999 -9999 -9999 -9999 -9999 -9999 -9999 -9999 -9999 -9999 -9999 -9999 -9999 -9999 -9999 -9999 -9999 -9999 -9999 -9999 -9999 -9999 -9999 -9999 -9999 -9999 -9999
-9999 -9999 -9999 -9999 -9999 455 454 454 453 452 451 450 449 449 449 450 451 453 455 457 459 461 464 468 471 474 476 479 484 495 504 504 501 489 476 462 451 443 436 427 421 415 409 402 396 393 390 389 388 389 390 391 391 392 393 396 399 401 403 404 406 410 417 424 426 428 429 429 430 430 430 430 430 430 430 429 429 428 428 427 426 426 424 422 419 416 413 411 408 401 396 393 389 385 383 381 366 356 347 335 311 287 265 248 243 242 243 246 249 249 254 257 263 280 308 332 348 357 364 372 383 391 406 422 429 433 434 434 432 430 429 426 410 398 390 383 375 365 360 355 351 347 344 341 337 335 332 329 326 324 322 320 319 318 316 315 314 313 313 312 312 312 311 311 311 311 311 310 310 309 308 307 305 304 303 303 303 304 304 305 306 307 308 309 311 312 314 316 318 320 320 320 320 320 320 320 320 320 320 319 319 318 316 314 312 310 308 306 302 296 290 284 276 270 265 261 258 256 254 252 250 248 246 245 243 240 235 231 225 214 213 213 213 213 213 213 213 213 213 213 213 213 213 213 214 214 214 214 214 214 214 214 213 213 213 213 213 213 213 213 213 213 213 216 235 265 303 337 350 352 354 355 357 358 359 361 361 362 362 361 360 360 358 357 354 352 351 353 356 361 365 367 368 370 371 371 369 367 366 365 360 354 363 368 370 371 371 371 371 371 370 369 367 365 363 360 357 357 357 -9999 -9999 -9999 -9999 -9999 -9999 -9999 -9999 -9999 -9999 -9999 -9999 -9999 -9999 -9999 -9999 -9999 -9999 -9999 -9999 -9999 -9999 -9999 -9999 -9999 -9999 -9999 -9999 -9999 -9999 -9999 -9999
-9999 -9999 -9999 -9999 -9999 455 454 454 453 452 451 450 449 449 450 450 452 453 454 456 458 460 463 467 472 474 478 481 485 497 503 502 493 482 471 460 449 440 432 425 419 413 407 401 395 392 390 388 387 387 388 388 389 389 390 391 394 395 397 398 398 402 410 417 425 427 428 428 429 429 429 429 430 429 429 429 428 428 427 427 426 425 423 421 419 416 414 412 409 402 396 393 389 385 383 377 357 343 335 324 315 314 298 274 251 242 241 242 244 243 248 251 253 259 274 296 320 340 351 360 373 385 396 414 426 430 433 433 432 430 428 418 404 394 386 378 368 362 357 352 348 345 342 339 336 333 330 327 324 322 320 318 317 315 314 313 312 311 311 310 310 310 309 310 310 309 309 309 309 308 307 306 305 304 302 302 302 303 303 304 305 306 307 309 310 312 314 315 317 319 320 320 320 320 320 320 320 319 318 317 316 315 314 312 310 308 306 303 297 290 285 278 272 266 261 258 256 254 253 251 249 247 245 241 238 233 227 219 213 213 213 213 213 213 213 213 213 213 213 213 213 213 213 214 214 214 214 214 214 214 214 214 213 213 213 213 213 213 213 213 213 213 216 234 260 295 332 349 352 353 354 355 357 359 361 362 363 364 364 363 362 361 360 359 356 354 354 357 361 364 367 368 370 371 373 372 369 365 363 361 359 360 366 371 373 374 374 374 373 373 371 370 367 365 362 359 358 360 360 -9999 -9999 -9999 -9999 -9999 -9999 -9999 -9999 -9999 -9999 -9999 -9999 -9999 -9999 -9999 -9999 -9999 -9999 -9999 -9999 -9999 -9999 -9999 -9999 -9999 -9999 -9999 -9999 -9999 -9999 -9999 -9999
-9999 -9999 -9999 -9999 -9999 455 454 454 453 452 451 450 450 450 450 450 451 453 454 455 456 457 461 465 470 474 478 482 491 502 503 497 487 478 468 457 446 437 427 422 417 412 405 398 394 391 389 387 385 385 385 386 386 386 386 386 387 388 390 392 392 394 400 408 416 424 427 428 428 428 429 429 429 429 428 428 428 427 427 426 425 423 421 418 417 415 413 412 409 403 398 394 390 385 382 376 354 342 333 327 330 332 324 305 278 253 242 241 242 242 244 247 250 253 257 267 286 311 330 349 363 379 393 411 422 429 433 435 434 432 428 413 397 388 380 371 363 359 354 350 346 343 340 337 334 331 327 324 321 320 318 316 314 313 312 311 310 309 308 308 308 308 308 308 308 308 308 308 307 307 306 305 304 303 301 301 301 302 303 303 304 305 306 308 309 311 313 314 316 318 319 320 320 319 319 318 317 316 315 313 313 312 311 310 308 307 303 296 289 285 280 274 268 262 258 256 254 253 251 250 248 246 243 237 230 223 213 213 213 213 213 213 213 213 213 213 213 213 213 213 213 213 214 214 214 214 214 214 214 214 214 214 213 213 213 213 213 213 213 213 213 218 227 251 282 311 335 349 351 353 354 355 357 360 363 364 365 366 366 365 364 362 361 360 358 356 357 360 364 366 369 370 372 373 374 374 371 367 367 367 368 369 372 375 377 377 377 376 376 375 373 370 367 364 361 359 361 364 364 -9999 -9999 -9999 -9999 -9999 -9999 -9999 -9999 -9999 -9999 -9999 -9999 -9999 -9999 -9999 -9999 -9999 -9999 -9999 -9999 -9999 -9999 -9999 -9999 -9999 -9999 -9999 -9999 -9999 -9999 -9999 -9999
-9999 -9999 -9999 -9999 -9999 456 455 454 453 452 451 451 450 450 450 451 451 452 453 454 455 456 457 462 468 473 478 484 498 503 500 492 483 474 464 453 443 433 424 418 414 410 403 396 393 390 388 386 384 384 383 383 383 383 382 382 381 381 384 386 388 390 394 400 409 421 427 427 428 428 428 428 428 428 428 427 427 427 426 426 424 421 419 416 414 413 412 410 407 403 398 395 391 386 381 371 354 350 345 340 339 337 333 323 301 277 261 250 245 245 243 243 246 249 252 255 264 282 309 338 357 374 391 410 420 429 437 441 438 435 426 408 393 382 374 365 360 356 352 348 344 340 337 334 331 328 324 321 319 317 315 313 312 310 309 308 307 306 305 306 306 306 306 306 306 306 306 306 306 306 305 304 304 302 301 300 300 301 302 302 303 304 305 307 309 310 312 313 315 316 317 318 318 317 316 315 314 313 311 310 309 308 308 307 306 303 295 288 284 280 275 270 264 259 256 254 253 251 250 248 246 244 239 232 223 213 213 213 213 213 213 213 213 213 213 213 213 213 213 213 213 214 214 214 214 214 214 214 214 214 214 214 213 213 213 213 213 213 213 213 215 226 242 265 286 303 319 334 345 351 353 354 357 361 364 366 367 368 368 367 365 364 363 362 360 358 359 362 365 368 370 372 374 375 376 376 376 375 376 377 378 380 380 380 380 380 379 379 378 376 374 371 367 363 360 360 363 365 365 -9999 -9999 -9999 -9999 -9999 -9999 -9999 -9999 -9999 -9999 -9999 -9999 -9999 -9999 -9999 -9999 -9999 -9999 -9999 -9999 -9999 -9999 -9999 -9999 -9999 -9999 -9999 -9999 -9999 -9999 -9999 -9999
-9999 -9999 -9999 -9999 -9999 456 455 455 454 453 452 451 451 450 450 451 451 452 453 454 454 455 456 460 466 472 477 484 498 503 496 486 478 469 460 450 439 429 421 414 410 406 400 394 392 389 387 385 383 382 381 381 381 380 380 380 379 379 380 381 384 386 389 394 405 419 426 426 427 427 428 428 428 428 427 427 426 426 425 424 422 419 416 413 411 411 410 408 405 402 399 396 392 388 384 382 376 368 358 351 345 338 331 318 308 297 291 280 255 250 245 243 243 246 248 251 254 262 287 318 348 374 391 410 423 434 444 452 449 441 429 406 388 378 369 362 357 352 348 344 341 337 334 331 328 324 321 319 316 314 313 311 309 308 307 306 305 304 303 304 304 304 304 304 305 305 305 305 305 304 304 303 303 302 300 299 299 300 300 301 302 303 305 306 308 309 311 312 314 314 315 315 315 314 313 312 310 309 308 307 306 305 305 304 302 293 287 283 280 276 271 265 260 256 254 252 251 250 248 246 244 240 233 223 213 213 213 213 213 213 213 213 213 213 213 213 213 213 213 214 214 214 214 214 214 214 214 214 214 214 214 214 213 213 213 213 213 213 213 213 226 237 255 266 274 287 301 318 333 341 349 351 354 358 364 364 364 366 370 370 368 366 365 364 362 360 361 364 367 369 372 374 376 377 378 379 380 380 381 381 382 383 383 382 382 381 381 381 380 379 376 372 368 364 361 362 365 366 366 -9999 -9999 -9999 -9999 -9999 -9999 -9999 -9999 -9999 -9999 -9999 -9999 -9999 -9999 -9999 -9999 -9999 -9999 -9999 -9999 -9999 -9999 -9999 -9999 -9999 -9999 -9999 -9999 -9999 -9999 -9999 -9999
-9999 -9999 -9999 -9999 -9999 -9999 456 455 455 454 453 452 451 451 451 451 451 452 453 453 454 455 456 458 464 469 473 482 494 500 490 481 472 465 457 447 436 425 416 409 406 403 398 394 391 388 386 384 382 381 380 379 379 379 378 378 378 378 378 379 380 382 384 389 398 413 423 426 426 426 427 427 427 427 427 426 426 425 423 421 419 417 415 411 410 409 408 406 404 402 399 396 393 390 387 385 382 378 367 356 345 335 326 317 311 306 302 300 283 255 248 244 241 242 243 246 247 251 262 290 329 369 393 416 431 442 451 458 457 452 435 410 383 373 366 359 353 348 344 340 337 334 331 328 324 321 318 316 314 312 310 308 307 305 304 304 303 303 303 303 303 303 303 303 304 304 304 304 304 303 303 302 301 301 299 298 298 299 299 300 301 302 304 305 307 308 310 311 312 313 313 312 312 311 310 308 307 306 305 304 302 301 300 297 291 286 283 280 277 273 266 259 257 254 251 250 248 248 246 245 241 235 226 213 213 213 213 213 213 213 213 213 213 213 213 213 213 214 214 214 214 214 214 214 214 214 214 214 214 214 214 214 213 213 213 213 213 213 213 219 232 242 251 260 267 274 287 305 319 329 337 347 351 356 360 362 365 367 371 372 371 369 368 367 365 362 362 364 368 371 374 376 378 379 380 380 381 382 382 383 383 383 384 383 383 383 382 382 381 380 379 374 368 364 362 364 366 367 367 -9999 -9999 -9999 -9999 -9999 -9999 -9999 -9999 -9999 -9999 -9999 -9999 -9999 -9999 -9999 -9999 -9999 -9999 -9999 -9999 -9999 -9999 -9999 -9999 -9999 -9999 -9999 -9999 -9999 -9999 -9999 -9999
-9999 -9999 -9999 -9999 -9999 -9999 457 456 456 455 454 453 452 452 451 451 452 452 453 454 454 455 455 458 462 467 470 477 486 487 482 476 468 461 453 441 427 419 411 406 403 400 396 393 390 387 385 383 381 380 379 378 378 377 377 377 376 376 377 378 378 379 381 384 390 402 414 421 425 425 423 423 425 425 425 424 423 421 420 418 416 414 413 411 410 408 407 405 403 402 399 397 395 393 390 387 384 381 372 359 346 336 327 318 313 307 304 303 296 283 257 243 240 241 241 242 242 242 244 260 297 345 386 418 433 444 454 458 458 453 442 410 381 367 360 353 348 343 339 336 334 331 328 324 321 317 315 313 311 309 307 306 304 303 303 302 302 302 302 302 302 302 302 302 302 302 303 303 303 302 302 301 300 300 298 297 297 297 298 298 300 301 303 304 306 307 309 310 310 311 311 310 309 308 307 305 304 303 302 301 299 297 294 290 286 283 280 277 273 269 263 258 255 252 249 247 246 246 245 242 236 228 216 213 213 213 213 213 213 213 213 213 213 214 214 214 214 214 214 214 214 214 214 214 214 214 214 214 214 214 214 213 213 213 213 213 213 213 213 218 230 239 244 258 270 279 297 318 335 345 344 341 348 360 366 367 368 370 373 374 374 373 372 370 367 363 364 367 370 373 376 378 380 381 380 381 382 383 383 384 384 384 384 384 384 384 383 383 382 382 381 377 369 363 363 364 366 368 368 368 -9999 -9999 -9999 -9999 -9999 -9999 -9999 -9999 -9999 -9999 -9999 -9999 -9999 -9999 -9999 -9999 -9999 -9999 -9999 -9999 -9999 -9999 -9999 -9999 -9999 -9999 -9999 -9999 -9999 -9999 -9999
-9999 -9999 -9999 -9999 -9999 -9999 457 457 457 456 455 454 453 452 452 452 452 452 453 454 454 455 456 458 463 467 469 472 482 483 478 471 463 454 444 435 425 414 408 403 399 396 394 391 388 386 383 381 380 379 378 377 377 376 376 375 375 375 375 376 376 377 378 380 383 393 404 411 414 414 414 414 415 416 415 416 417 417 417 415 413 411 411 410 410 409 408 406 404 402 400 398 397 395 392 389 386 383 377 363 351 340 331 323 317 309 305 301 298 300 280 256 242 240 240 241 242 244 245 248 265 313 364 404 428 441 456 459 458 457 442 410 379 362 354 348 342 338 335 332 329 327 324 321 317 314 311 309 307 306 305 304 303 302 302 302 301 301 301 301 301 301 301 301 301 301 302 302 302 301 301 301 300 299 298 296 295 296 296 297 298 300 302 304 305 306 307 308 309 309 309 308 307 306 305 303 302 301 299 297 295 293 290 286 283 280 277 274 269 265 260 256 253 250 247 245 243 243 242 236 229 217 213 213 213 213 213 213 213 213 213 214 214 214 214 214 214 214 214 214 214 214 214 214 214 214 214 214 214 214 214 213 213 213 213 213 213 213 214 222 228 241 259 280 296 314 335 352 361 365 364 360 351 364 367 369 371 373 375 376 377 377 376 374 368 364 367 370 373 376 378 380 382 381 380 381 383 384 385 385 385 386 386 385 385 385 385 384 383 383 382 380 369 364 363 364 366 369 370 370 -9999 -9999 -9999 -9999 -9999 -9999 -9999 -9999 -9999 -9999 -9999 -9999 -9999 -9999 -9999 -9999 -9999 -9999 -9999 -9999 -9999 -9999 -9999 -9999 -9999 -9999 -9999 -9999 -9999 -9999 -9999
-9999 -9999 -9999 -9999 -9999 -9999 457 457 457 457 456 454 453 453 452 452 453 453 453 453 454 455 455 460 468 472 477 482 486 484 475 466 457 449 440 430 420 410 405 400 396 393 391 388 385 383 382 380 379 378 377 376 375 375 374 374 373 374 374 374 375 376 376 377 378 384 395 402 404 404 402 400 401 403 405 408 411 413 414 413 410 409 409 410 410 410 409 408 406 404 402 400 399 397 395 391 388 385 382 372 360 345 335 328 320 313 306 304 304 304 295 273 254 242 240 241 241 245 248 248 251 292 344 386 419 439 455 458 456 455 437 404 374 356 347 342 337 333 331 328 325 323 320 317 313 310 307 305 304 303 303 303 302 301 301 300 300 300 300 300 300 300 300 300 300 300 300 301 301 301 300 300 299 298 297 295 294 294 295 295 297 298 300 302 304 305 306 307 307 307 307 306 306 305 303 301 300 298 296 294 292 289 286 284 281 278 275 270 265 260 256 254 251 248 245 242 238 237 232 227 217 213 213 213 213 213 213 213 213 214 214 214 214 214 214 214 214 214 214 214 215 215 215 214 214 214 214 214 214 214 213 213 213 213 213 213 213 214 228 243 251 272 297 317 332 346 359 365 364 366 367 365 363 366 369 371 373 375 377 378 380 380 380 378 371 367 370 374 377 379 381 382 384 382 380 382 384 385 386 386 387 387 387 387 386 386 386 385 384 384 383 381 374 364 364 365 368 370 371 371 -9999 -9999 -9999 -9999 -9999 -9999 -9999 -9999 -9999 -9999 -9999 -9999 -9999 -9999 -9999 -9999 -9999 -9999 -9999 -9999 -9999 -9999 -9999 -9999 -9999 -9999 -9999 -9999 -9999 -9999 -9999
-9999 -9999 -9999 -9999 -9999 -9999 457 457 457 457 456 455 454 453 453 453 453 453 454 454 454 455 459 471 476 485 488 489 489 486 472 462 453 444 433 422 411 406 402 398 394 391 388 386 383 381 380 379 378 377 376 375 374 373 373 372 372 372 372 372 373 374 375 376 377 378 384 392 395 396 393 390 390 392 394 399 405 410 410 410 408 407 409 410 411 411 411 410 408 406 404 402 400 399 396 393 389 386 383 378 364 347 339 331 322 316 310 306 306 305 296 281 271 254 241 241 241 245 250 250 251 285 333 374 409 432 445 450 446 445 426 393 367 349 342 337 333 330 327 324 321 318 315 311 309 306 304 303 302 302 301 301 300 300 300 299 299 299 299 299 299 299 299 299 299 299 299 299 300 300 299 299 298 297 297 295 294 293 293 294 294 296 298 300 303 304 304 305 305 305 305 305 304 303 301 299 297 296 294 292 289 286 283 281 278 275 270 265 260 256 254 252 249 246 243 239 234 230 223 215 213 213 213 213 213 213 213 213 214 214 214 214 214 214 214 215 215 215 215 215 215 215 215 215 214 214 214 214 214 214 213 213 214 214 213 213 213 219 236 259 277 304 328 345 355 360 365 367 367 368 369 369 367 368 371 373 375 377 379 380 381 382 382 380 373 371 375 379 380 381 383 384 385 384 384 385 386 387 387 388 388 388 388 388 388 387 387 386 385 385 384 383 381 372 368 368 370 372 372 372 -9999 -9999 -9999 -9999 -9999 -9999 -9999 -9999 -9999 -9999 -9999 -9999 -9999 -9999 -9999 -9999 -9999 -9999 -9999 -9999 -9999 -9999 -9999 -9999 -9999 -9999 -9999 -9999 -9999 -9999 -9999
-9999 -9999 -9999 -9999 -9999 -9999 457 457 457 457 456 455 454 454 453 453 454 454 454 455 455 461 473 483 488 489 489 489 489 482 468 459 448 438 427 415 407 402 398 395 392 389 386 383 381 379 378 377 376 375 375 374 373 372 372 371 370 370 370 370 371 372 373 374 375 376 379 381 386 387 385 383 383 385 388 393 398 403 405 405 405 408 410 411 412 413 412 411 410 408 406 404 402 399 396 393 389 386 383 378 363 349 340 332 323 316 312 307 302 293 286 279 273 265 243 241 242 245 250 252 257 283 327 365 402 427 436 438 437 434 409 380 358 345 337 332 329 326 323 321 316 312 307 305 304 303 302 301 300 300 300 299 299 299 298 298 298 298 298 298 298 298 298 298 298 298 298 298 299 299 298 298 297 297 296 295 293 292 292 291 291 292 294 297 300 302 303 304 303 303 303 303 303 301 299 297 295 293 292 289 286 283 280 277 275 270 265 260 256 254 252 249 247 244 241 236 231 223 213 213 213 213 213 213 213 213 213 214 214 214 214 214 214 215 215 215 215 215 215 215 215 215 215 215 214 214 214 214 214 213 213 214 214 214 213 213 213 227 250 270 291 320 345 352 360 366 367 369 370 371 372 372 372 373 374 376 378 379 381 382 383 383 383 380 375 375 379 382 383 384 385 386 387 387 387 388 388 389 389 389 389 389 389 389 389 389 388 388 387 386 385 384 382 379 374 373 373 374 374 374 -9999 -9999 -9999 -9999 -9999 -9999 -9999 -9999 -9999 -9999 -9999 -9999 -9999 -9999 -9999 -9999 -9999 -9999 -9999 -9999 -9999 -9999 -9999 -9999 -9999 -9999 -9999 -9999 -9999 -9999 -9999
-9999 -9999 -9999 -9999 -9999 -9999 457 457 456 456 455 455 454 454 454 454 454 454 455 455 457 467 481 487 490 491 490 490 488 477 464 456 444 433 423 410 404 399 395 392 390 387 384 381 379 378 377 376 375 374 373 373 372 371 370 369 369 369 368 368 369 370 371 372 373 375 376 378 380 381 380 379 379 380 382 387 394 398 401 401 404 409 412 413 414 415 414 413 411 409 408 406 404 401 396 393 390 386 382 369 357 349 341 334 329 320 315 307 295 287 284 281 280 268 249 241 241 244 248 249 251 277 321 357 395 424 431 432 429 418 393 368 350 339 333 328 325 322 319 315 310 305 303 302 301 300 300 299 299 298 298 298 298 297 297 297 297 297 297 297 297 297 297 297 297 297 297 297 298 298 298 297 297 296 295 294 293 292 291 289 288 288 291 294 297 299 301 301 301 301 301 301 300 298 296 294 293 291 289 286 283 279 276 273 270 265 260 256 254 251 249 247 245 241 236 230 222 213 213 213 213 213 213 213 213 213 214 214 214 214 214 214 215 215 215 215 215 215 215 215 215 215 215 215 214 214 214 214 214 213 213 214 214 213 213 213 224 251 275 294 314 329 339 349 352 364 366 369 371 373 374 375 376 377 378 379 381 382 382 384 385 385 383 381 376 379 382 385 387 388 388 389 389 390 390 390 390 390 391 391 391 391 390 390 390 390 390 389 388 387 386 385 383 381 378 377 376 376 376 375 -9999 -9999 -9999 -9999 -9999 -9999 -9999 -9999 -9999 -9999 -9999 -9999 -9999 -9999 -9999 -9999 -9999 -9999 -9999 -9999 -9999 -9999 -9999 -9999 -9999 -9999 -9999 -9999 -9999 -9999 -9999
-9999 -9999 -9999 -9999 -9999 -9999 -9999 456 455 455 455 455 455 454 454 454 455 455 455 455 459 468 482 488 491 493 492 490 486 472 458 448 438 429 415 406 400 397 394 391 388 385 382 380 378 377 376 375 373 372 371 371 370 370 369 368 367 367 366 366 367 367 368 370 371 372 374 375 376 377 377 377 377 378 379 382 389 395 397 400 404 409 412 414 416 417 417 415 414 411 410 409 407 404 399 395 391 387 381 368 351 346 341 337 335 329 320 309 297 289 288 289 297 289 266 247 241 243 246 246 245 273 318 353 391 421 428 428 419 404 382 360 345 335 329 324 321 316 311 307 304 302 300 299 299 298 298 297 297 297 296 296 296 296 296 296 296 296 296 296 296 296 296 296 296 296 296 296 297 297 297 297 296 296 295 294 293 291 290 289 288 287 289 292 294 297 298 299 299 299 298 298 297 295 294 292 290 288 286 282 279 275 272 268 264 260 256 253 251 248 246 245 242 237 229 218 213 213 213 213 213 213 213 213 213 213 214 214 214 214 214 214 215 215 215 215 215 215 215 215 215 215 215 214 214 214 214 214 213 213 213 213 213 213 213 224 252 285 307 323 333 340 347 349 349 354 365 368 371 374 377 378 379 380 381 382 383 384 385 386 387 386 384 382 378 381 385 388 390 391 391 391 391 392 392 392 392 392 392 392 392 392 392 392 392 391 391 390 390 389 388 387 385 383 381 379 378 378 377 376 -9999 -9999 -9999 -9999 -9999 -9999 -9999 -9999 -9999 -9999 -9999 -9999 -9999 -9999 -9999 -9999 -9999 -9999 -9999 -9999 -9999 -9999 -9999 -9999 -9999 -9999 -9999 -9999 -9999 -9999 -9999
-9999 -9999 -9999 -9999 -9999 -9999 -9999 454 454 455 455 455 455 455 455 455 455 455 456 459 466 473 482 488 493 495 493 490 486 470 455 441 433 422 410 402 396 394 392 389 386 383 381 379 377 376 374 373 372 371 370 369 369 368 368 367 366 365 365 364 365 365 366 367 368 370 371 372 373 374 374 375 375 377 378 380 385 391 394 398 402 408 412 414 416 418 419 418 417 415 413 411 410 408 403 398 394 389 383 371 351 345 340 335 334 330 324 317 305 302 300 308 316 311 284 256 242 241 244 244 244 272 316 352 388 421 426 422 410 396 376 355 339 329 322 317 311 306 303 301 300 299 298 297 296 296 296 295 295 295 295 295 295 295 295 295 295 295 295 295 295 295 295 295 295 295 295 295 296 296 296 296 295 295 294 293 292 291 290 289 288 285 287 289 292 294 296 297 297 296 296 295 294 293 291 289 287 285 281 278 274 270 266 263 259 256 253 251 248 245 243 240 234 227 216 213 213 213 213 213 213 213 213 213 213 213 214 214 214 214 214 215 215 215 215 215 215 215 215 215 215 215 215 214 214 214 214 214 213 213 213 213 213 213 225 253 286 312 326 334 334 338 345 349 350 350 359 365 368 375 379 380 381 382 383 385 386 387 387 388 388 387 385 382 380 384 389 392 394 395 394 393 393 394 394 395 395 394 394 394 394 393 393 393 393 393 392 392 391 390 390 388 387 385 383 381 380 379 378 377 377 -9999 -9999 -9999 -9999 -9999 -9999 -9999 -9999 -9999 -9999 -9999 -9999 -9999 -9999 -9999 -9999 -9999 -9999 -9999 -9999 -9999 -9999 -9999 -9999 -9999 -9999 -9999 -9999 -9999 -9999
-9999 -9999 -9999 -9999 -9999 -9999 -9999 452 453 454 455 455 456 455 455 455 455 457 460 466 473 477 482 487 497 498 494 490 481 466 452 440 429 418 408 400 395 392 390 388 385 382 380 378 376 375 373 372 370 369 368 368 367 367 366 365 365 364 364 364 364 364 365 364 366 366 367 369 370 371 372 372 374 375 377 379 383 387 391 394 398 404 410 413 415 418 421 421 420 418 416 414 413 411 408 402 397 392 386 377 361 348 342 336 333 330 324 318 312 309 311 319 320 316 289 260 243 240 242 243 245 272 314 350 386 416 424 416 406 394 373 350 333 320 310 304 300 298 297 296 296 296 295 295 294 294 293 293 293 293 293 293 293 294 294 294 294 294 294 294 294 294 294 294 294 294 294 294 295 295 295 295 295 294 294 293 292 291 290 290 288 284 285 288 290 293 295 295 295 294 293 292 291 290 288 285 283 280 276 273 269 265 261 258 255 252 250 248 245 241 235 230 220 213 213 213 213 213 213 213 213 213 213 213 213 213 214 214 214 214 214 215 215 215 215 215 215 215 215 215 215 215 215 214 214 214 214 213 213 213 213 213 213 219 245 275 296 304 306 308 316 321 330 335 339 349 362 364 366 378 382 383 384 385 387 388 389 390 390 390 390 388 386 385 385 389 394 396 397 397 396 395 396 396 396 397 397 396 396 396 395 395 394 395 395 394 394 393 393 392 392 390 389 387 385 384 382 381 379 378 378 -9999 -9999 -9999 -9999 -9999 -9999 -9999 -9999 -9999 -9999 -9999 -9999 -9999 -9999 -9999 -9999 -9999 -9999 -9999 -9999 -9999 -9999 -9999 -9999 -9999 -9999 -9999 -9999 -9999 -9999
-9999 -9999 -9999 -9999 -9999 -9999 -9999 450 452 454 455 456 456 456 456 456 456 459 464 470 474 479 483 489 502 499 494 489 477 464 451 438 426 414 406 400 396 391 388 386 384 381 379 377 375 373 372 370 369 368 367 366 366 365 365 365 364 364 364 364 364 364 364 364 364 364 365 366 367 368 369 370 372 374 376 378 381 384 387 391 394 398 404 410 413 416 420 424 424 422 419 417 415 413 411 406 399 394 388 382 373 361 350 342 335 331 327 322 317 315 316 320 321 313 291 264 244 240 240 242 244 272 310 346 381 412 424 416 400 390 373 348 324 307 298 294 291 291 291 291 292 293 293 292 292 291 291 291 291 291 291 291 292 292 293 293 293 293 293 293 293 293 293 293 293 293 293 294 294 294 294 294 294 294 293 293 292 291 290 290 289 284 282 286 289 291 293 293 293 292 291 290 289 287 284 281 278 275 272 268 264 260 256 253 250 247 246 244 240 234 226 216 213 213 213 214 214 214 213 213 213 213 213 213 213 213 214 214 214 214 214 215 215 215 215 215 215 215 215 215 215 215 214 214 214 214 213 213 213 213 213 213 213 227 248 264 270 275 280 289 301 312 333 346 349 345 358 365 373 381 383 384 386 388 390 391 392 393 393 392 392 391 389 388 390 394 397 398 399 399 399 399 399 399 400 401 401 400 400 400 399 397 397 397 398 397 395 395 394 394 394 393 391 390 388 386 384 382 380 379 379 -9999 -9999 -9999 -9999 -9999 -9999 -9999 -9999 -9999 -9999 -9999 -9999 -9999 -9999 -9999 -9999 -9999 -9999 -9999 -9999 -9999 -9999 -9999 -9999 -9999 -9999 -9999 -9999 -9999 -9999
-9999 -9999 -9999 -9999 -9999 -9999 -9999 449 451 453 455 457 457 457 456 456 458 461 466 471 476 482 486 493 500 497 492 486 475 461 448 435 423 411 404 398 394 390 387 384 382 380 378 376 374 372 370 369 367 366 365 365 365 364 364 364 364 363 363 363 363 363 363 363 363 364 364 364 365 366 367 368 370 372 374 376 379 381 385 388 391 394 397 403 409 412 416 422 426 424 421 418 416 414 412 407 401 396 391 387 382 373 360 352 343 336 333 331 328 322 320 322 321 310 292 265 247 240 240 241 246 272 304 336 371 403 424 420 398 388 371 342 311 296 288 285 283 283 283 286 288 290 290 290 289 289 288 288 288 288 289 289 290 291 291 292 292 292 292 292 292 292 292 292 292 292 292 293 293 293 293 294 294 293 293 292 292 291 290 290 288 284 279 283 288 290 292 292 291 290 288 287 285 283 279 276 273 270 267 262 258 254 251 248 245 242 239 237 230 222 213 213 213 214 214 214 214 214 214 213 213 213 213 213 213 214 214 214 214 214 214 215 215 215 215 215 215 215 215 215 215 214 214 214 214 213 213 213 213 213 213 213 216 223 234 243 251 267 278 291 303 322 348 363 365 359 351 363 375 382 383 385 387 390 392 394 395 395 395 395 394 393 393 391 394 397 398 400 401 402 402 402 402 403 404 405 404 404 405 405 405 404 403 403 402 400 398 397 396 396 396 395 394 393 391 389 386 384 381 380 379 -9999 -9999 -9999 -9999 -9999 -9999 -9999 -9999 -9999 -9999 -9999 -9999 -9999 -9999 -9999 -9999 -9999 -9999 -9999 -9999 -9999 -9999 -9999 -9999 -9999 -9999 -9999 -9999 -9999 -9999
-9999 -9999 -9999 -9999 -9999 -9999 -9999 446 449 452 455 457 457 457 457 457 459 463 469 473 478 484 488 493 496 494 489 481 468 454 443 430 418 409 401 395 392 388 385 382 380 378 376 374 372 371 369 367 366 365 364 364 364 364 364 363 363 363 363 363 363 363 363 363 363 363 363 364 364 364 365 366 368 370 372 375 377 380 382 386 388 391 393 397 402 407 411 415 421 423 420 419 417 415 412 409 403 398 394 389 385 378 366 357 349 343 341 342 340 335 330 326 322 305 286 261 243 239 240 240 249 269 296 323 353 380 400 409 395 383 364 335 306 289 278 274 273 274 276 278 281 284 286 287 286 286 285 285 285 285 286 288 289 290 290 291 291 291 291 291 292 291 291 291 291 291 291 292 292 292 293 293 293 293 293 292 291 291 290 290 289 284 278 280 286 289 290 290 290 288 285 283 281 278 275 271 267 263 260 256 252 248 244 240 235 230 226 222 214 213 213 213 213 214 215 214 214 214 214 213 213 213 213 213 213 214 214 214 214 214 214 215 215 215 215 215 215 215 215 215 215 214 214 214 213 213 213 213 213 213 213 219 227 232 241 247 256 262 274 285 300 325 355 366 369 367 358 355 370 380 382 384 387 390 394 396 397 397 397 396 396 396 396 396 394 397 400 402 403 404 405 405 406 406 407 409 409 409 411 413 415 415 411 408 406 404 402 401 400 399 398 397 396 395 393 391 389 386 383 380 380 -9999 -9999 -9999 -9999 -9999 -9999 -9999 -9999 -9999 -9999 -9999 -9999 -9999 -9999 -9999 -9999 -9999 -9999 -9999 -9999 -9999 -9999 -9999 -9999 -9999 -9999 -9999 -9999 -9999 -9999
-9999 -9999 -9999 -9999 -9999 -9999 -9999 444 446 450 455 458 458 458 457 458 460 464 470 474 479 485 488 491 493 491 488 477 459 447 436 424 411 405 399 394 390 387 383 380 379 377 375 373 371 369 367 366 365 364 364 364 363 363 363 363 363 362 362 362 362 362 362 362 362 363 363 363 363 364 364 364 366 368 371 373 376 378 381 383 386 388 391 394 397 402 406 409 414 417 418 418 418 417 414 410 405 401 396 392 387 383 379 367 357 350 350 351 349 345 337 330 323 309 290 268 245 239 240 240 244 262 285 309 333 351 363 370 370 361 347 324 302 283 269 263 264 266 269 271 274 277 278 280 281 281 281 281 281 281 282 284 287 288 289 290 290 290 290 291 291 291 290 290 290 290 291 291 291 292 292 292 292 292 292 292 291 291 290 290 289 283 276 275 281 286 289 289 287 285 282 279 277 275 270 265 260 257 252 247 243 240 234 226 217 213 213 213 213 213 213 213 213 214 214 214 214 214 213 213 213 213 213 213 213 213 214 214 214 214 214 215 215 215 215 215 215 215 215 215 214 214 214 214 213 213 213 213 213 213 218 232 244 253 264 276 282 270 270 275 294 320 345 363 370 374 374 365 364 371 378 382 385 389 394 397 398 399 399 399 399 399 399 399 397 399 401 404 406 407 408 408 409 410 411 415 420 422 425 427 430 429 425 417 410 408 407 405 404 403 402 400 399 397 395 393 391 389 386 383 382 -9999 -9999 -9999 -9999 -9999 -9999 -9999 -9999 -9999 -9999 -9999 -9999 -9999 -9999 -9999 -9999 -9999 -9999 -9999 -9999 -9999 -9999 -9999 -9999 -9999 -9999 -9999 -9999 -9999 -9999
-9999 -9999 -9999 -9999 -9999 -9999 -9999 -9999 443 445 449 453 454 454 456 457 459 462 468 473 478 482 487 489 490 489 487 472 451 438 427 419 411 403 397 393 389 385 382 380 377 375 373 371 369 368 366 365 364 364 363 363 363 363 363 362 362 362 362 362 362 362 362 362 362 362 362 363 363 363 364 364 365 367 369 371 374 376 379 381 383 386 389 391 394 398 402 406 410 413 415 417 419 420 418 412 408 403 398 394 390 386 384 380 369 362 359 357 354 349 338 329 322 313 299 278 248 241 241 240 240 248 269 289 307 318 320 321 322 320 316 305 291 276 260 255 257 259 261 264 267 270 271 274 276 277 277 276 276 276 278 281 283 285 288 288 288 289 289 290 290 290 290 289 288 289 290 290 291 291 292 292 292 292 292 292 292 291 290 290 289 282 274 271 277 282 285 285 284 281 278 276 273 270 265 260 255 250 245 237 232 227 217 213 213 213 213 213 213 213 213 213 213 213 213 213 213 213 213 213 213 213 213 213 213 213 214 214 214 214 214 215 215 215 215 215 215 215 215 214 214 214 214 213 213 213 213 213 213 215 231 248 259 265 275 295 313 310 297 279 283 305 326 347 365 377 383 379 367 367 373 378 382 386 391 395 397 399 401 402 402 402 402 403 403 403 404 406 408 409 410 411 413 415 419 424 429 432 436 443 446 446 442 433 421 414 411 409 407 406 405 403 401 400 398 396 394 393 391 389 387 -9999 -9999 -9999 -9999 -9999 -9999 -9999 -9999 -9999 -9999 -9999 -9999 -9999 -9999 -9999 -9999 -9999 -9999 -9999 -9999 -9999 -9999 -9999 -9999 -9999 -9999 -9999 -9999 -9999 -9999
-9999 -9999 -9999 -9999 -9999 -9999 -9999 -9999 439 441 442 443 445 447 450 454 456 459 464 471 475 477 481 487 488 487 484 464 442 429 421 414 407 399 396 391 387 383 380 378 376 374 372 370 368 366 365 364 364 363 363 363 362 362 362 362 362 361 361 361 361 361 361 361 361 362 362 362 363 363 363 364 364 365 367 369 372 375 377 380 382 384 386 389 392 395 399 403 407 410 413 416 419 424 424 419 413 407 402 396 392 389 386 383 380 372 366 360 354 345 334 322 316 307 297 283 255 244 242 240 239 240 246 257 269 275 276 274 274 273 274 274 271 264 254 248 248 251 253 256 259 262 264 266 268 269 268 267 266 268 273 276 278 280 282 284 285 286 288 289 289 289 289 288 287 288 289 290 290 291 291 292 292 292 292 292 292 291 291 290 287 281 273 267 275 279 281 281 280 277 275 272 267 263 259 254 250 244 234 225 216 213 213 213 214 214 214 214 213 213 213 213 213 213 213 213 213 213 213 213 213 213 213 213 213 213 213 214 214 214 214 214 215 215 215 215 215 214 214 214 214 214 213 213 213 213 213 213 215 229 246 265 280 282 285 303 320 333 336 317 300 300 308 327 350 371 382 383 380 377 378 378 380 384 388 392 395 398 402 404 404 404 405 406 407 407 408 408 411 412 415 416 419 421 426 431 435 439 444 453 458 458 457 451 433 420 416 413 411 409 407 406 404 402 400 398 397 396 395 393 392 390 -9999 -9999 -9999 -9999 -9999 -9999 -9999 -9999 -9999 -9999 -9999 -9999 -9999 -9999 -9999 -9999 -9999 -9999 -9999 -9999 -9999 -9999 -9999 -9999 -9999 -9999 -9999 -9999 -9999
